ply
format ascii 1.0
comment PCL generated
element vertex 1167
property float x
property float y
property float z
property uchar red
property uchar green
property uchar blue
element camera 0
property float view_px
property float view_py
property float view_pz
property float x_axisx
property float x_axisy
property float x_axisz
property float y_axisx
property float y_axisy
property float y_axisz
property float z_axisx
property float z_axisy
property float z_axisz
property float focal
property float scalex
property float scaley
property float centerx
property float centery
property int viewportx
property int viewporty
property float k1
property float k2
end_header
0.1724916 0.087457649 0.1089914 0 0 0
-0.0231953 0.3229453 -0.047590129 0 0 0
-0.023331171 0.32849181 -0.053648151 0 0 0
0.192352 -0.02810834 0.1599851 0 0 0
-0.069849283 0.25778559 -0.01095827 0 0 0
-0.067048043 0.263468 -0.01303222 0 0 0
-0.067411683 0.26920629 -0.01330395 0 0 0
-0.067371719 0.27510849 -0.0149783 0 0 0
-0.067311794 0.28102669 -0.01713218 0 0 0
-0.063263781 0.29297891 -0.0245049 0 0 0
-0.063279763 0.28707269 -0.02068067 0 0 0
-0.067263827 0.28697279 -0.020281071 0 0 0
-0.004561692 -0.2334577 0.17837889 0 0 0
-0.002415807 -0.23216701 0.17930999 0 0 0
-0.0083020004 -0.23296221 0.1771002 0 0 0
0.29196969 -0.062514409 0.01273836 0 0 0
0.29146221 -0.056963868 0.016714429 0 0 0
-0.097362123 -0.18969689 0.030760581 0 0 0
-0.096922576 0.20528939 0.01760955 0 0 0
-0.09522824 0.2113634 0.01538375 0 0 0
-0.097242244 0.2114394 0.019371809 0 0 0
-0.093525909 -0.1789155 0.03065668 0 0 0
-0.093669772 -0.1732851 0.026460821 0 0 0
-0.14941479 0.21679001 -0.14380319 0 0 0
0.33245781 -0.1698565 0.051104501 0 0 0
0.3301481 -0.1696967 0.054840822 0 0 0
0.32915309 -0.17645399 0.048778798 0 0 0
0.1724956 0.093004167 0.1059904 0 0 0
0.1724437 0.076284662 0.1143621 0 0 0
-0.065749332 -0.2280551 0.1403445 0 0 0
-0.069393732 -0.22814301 0.14195091 0 0 0
-0.064670376 -0.2319552 0.14000881 0 0 0
-0.1417703 0.2747848 -0.2628977 0 0 0
-0.083691627 0.19987071 -0.031653851 0 0 0
-0.063247792 -0.20966519 0.1348698 0 0 0
-0.063283756 -0.20431849 0.13212059 0 0 0
-0.063259773 -0.1988759 0.12925939 0 0 0
-0.063267767 -0.1936011 0.1264302 0 0 0
-0.063303731 -0.1879786 0.1243403 0 0 0
-0.063291751 -0.18254 0.1226339 0 0 0
-0.063291751 -0.17698149 0.121587 0 0 0
-0.06331972 -0.17135499 0.1211794 0 0 0
-0.063359678 -0.1657645 0.1213232 0 0 0
-0.063311733 -0.1600502 0.1221264 0 0 0
-0.063299753 -0.14863341 0.1241085 0 0 0
-0.14746469 0.2133414 0.1153371 0 0 0
-0.1485796 0.22028659 0.1124799 0 0 0
-0.063307717 -0.142975 0.12462 0 0 0
-0.06737572 -0.1431109 0.1232214 0 0 0
-0.067295797 -0.1373965 0.1240805 0 0 0
-0.063291751 -0.1372606 0.125595 0 0 0
0.2044881 -0.2169141 -0.058199659 0 0 0
-0.063263781 -0.1315103 0.1270576 0 0 0
-0.063167863 -0.12577599 0.1278328 0 0 0
-0.067167923 -0.1203094 0.1263902 0 0 0
-0.06322781 -0.1201815 0.12799659 0 0 0
-0.067263827 -0.1147149 0.126578 0 0 0
-0.069945186 -0.116617 0.1249317 0 0 0
-0.063295737 -0.114587 0.12816849 0 0 0
-0.070868269 -0.1109586 0.12553111 0 0 0
-0.063259773 -0.1088726 0.12909161 0 0 0
-0.063255787 -0.1031223 0.13055409 0 0 0
-0.063303731 -0.097503878 0.1319647 0 0 0
-0.063291751 -0.091781512 0.1328719 0 0 0
-0.063267767 -0.085991241 0.1340826 0 0 0
-0.063259773 -0.080296837 0.1350617 0 0 0
-0.063223809 -0.074622437 0.1358729 0 0 0
-0.063223809 -0.069035962 0.1359608 0 0 0
-0.063259773 -0.06350942 0.1351656 0 0 0
-0.06328775 -0.058046799 0.13331939 0 0 0
-0.063275762 -0.05252824 0.1322525 0 0 0
-0.063247792 -0.046841871 0.1330597 0 0 0
-0.063235797 -0.041163448 0.1344223 0 0 0
-0.063243799 -0.035505049 0.13466211 0 0 0
-0.063271783 -0.029970489 0.1338229 0 0 0
-0.06328775 -0.024336049 0.13373899 0 0 0
-0.063255787 -0.018605709 0.13449819 0 0 0
-0.063259773 -0.01295129 0.1345422 0 0 0
-0.063315719 -0.007472713 0.1338629 0 0 0
-0.06322781 -0.001722365 0.1331955 0 0 0
-0.06319984 0.003888079 0.1331995 0 0 0
-0.063263781 0.0095345192 0.1328838 0 0 0
-0.063291751 0.01515696 0.132668 0 0 0
-0.063255787 0.0207914 0.1319088 0 0 0
-0.063191853 0.02642986 0.13067 0 0 0
-0.063279763 0.031912431 0.1293034 0 0 0
-0.06319584 0.037566852 0.1275491 0 0 0
-0.063219823 0.04310938 0.1259187 0 0 0
-0.06322781 0.048619971 0.1233692 0 0 0
-0.063155882 0.054286361 0.1196209 0 0 0
-0.063235797 0.0596091 0.1162962 0 0 0
-0.063235797 0.065131657 0.111373 0 0 0
-0.063267767 0.070446432 0.1066577 0 0 0
-0.063279763 0.075945012 0.1026416 0 0 0
-0.063283756 0.081379652 0.098525718 0 0 0
-0.063295737 0.086870231 0.093978196 0 0 0
-0.063299753 0.092232943 0.088811301 0 0 0
-0.06331972 0.097767487 0.082821213 0 0 0
-0.06176126 0.1083051 0.070569299 0 0 0
-0.066156916 0.1081412 0.069058783 0 0 0
0.2916061 -0.056959879 -0.0032378831 0 0 0
0.29145429 -0.056967858 -0.0072099641 0 0 0
0.044673741 -0.2241549 -0.07025177 0 0 0
0.040509839 -0.22433069 -0.070927098 0 0 0
0.043406989 -0.224079 -0.078020103 0 0 0
-0.26322249 0.1170445 0.085035034 0 0 0
-0.2630547 0.1170644 0.089019097 0 0 0
-0.26269099 0.122531 0.08499907 0 0 0
0.22025651 -0.1362856 -0.1192434 0 0 0
0.2205162 -0.1305353 -0.1190396 0 0 0
0.2235653 -0.1359539 -0.1150316 0 0 0
0.3278583 -0.1431908 -0.039194409 0 0 0
0.33068761 -0.14291909 -0.035158388 0 0 0
0.3292889 -0.1486015 -0.035186362 0 0 0
0.26905629 0.03130503 -0.03908252 0 0 0
-0.081789494 0.1502118 -0.01429897 0 0 0
-0.084510811 0.1563656 -0.01033488 0 0 0
-0.080638632 0.15025569 -0.01030291 0 0 0
-0.098245271 -0.189613 0.04261288 0 0 0
0.1725236 0.065407388 0.1197927 0 0 0
0.1724557 0.070746116 0.1169116 0 0 0
-0.14296509 0.2715281 -0.25503749 0 0 0
0.29242131 -0.084776416 -0.01168155 0 0 0
0.29190981 -0.079361759 -0.01115807 0 0 0
-0.1192845 -0.1600302 -0.01330795 0 0 0
0.0088370871 0.26761189 -0.095091261 0 0 0
0.01127069 0.27222741 -0.097912483 0 0 0
0.01281716 0.266525 -0.093984358 0 0 0
-0.03752517 -0.220035 -0.15372141 0 0 0
-0.043755021 -0.22198109 -0.1518193 0 0 0
-0.039719 -0.2162787 -0.15177131 0 0 0
-0.063603453 0.2636838 -0.01596133 0 0 0
-0.067012072 0.25778159 -0.01389137 0 0 0
-0.1053223 0.1971854 -0.038710881 0 0 0
-0.1014701 0.1917827 -0.03559396 0 0 0
-0.06328775 0.27518839 -0.016308989 0 0 0
-0.063271783 0.2811226 -0.017951369 0 0 0
0.2911346 -0.051397368 0.01272237 0 0 0
0.2906031 -0.045834862 0.01271438 0 0 0
0.29038331 -0.04586282 0.01669045 0 0 0
-0.0592837 0.29293099 -0.02408931 0 0 0
-0.2468466 0.1824239 0.0088461936 0 0 0
-0.244473 0.18234 0.0048541329 0 0 0
-0.2455 0.17686149 0.0048221638 0 0 0
-0.033305328 0.2288022 -0.035601951 0 0 0
-0.15521701 -0.2147402 -0.057440411 0 0 0
-0.1534708 -0.212934 -0.056821018 0 0 0
-0.14861161 -0.213953 -0.060537349 0 0 0
-0.14609399 0.18491749 -0.063850082 0 0 0
-0.062748291 -0.22251651 0.137743 0 0 0
-0.053709209 -0.2275636 0.1349418 0 0 0
-0.059311669 -0.2208861 0.13613661 0 0 0
-0.068818294 -0.2364108 0.1398969 0 0 0
-0.063775256 -0.23428489 0.13904969 0 0 0
-0.059263721 -0.21529169 0.1353094 0 0 0
-0.06322781 -0.2151718 0.13644829 0 0 0
-0.059275709 -0.20973711 0.1342745 0 0 0
-0.05924375 -0.20423061 0.13238031 0 0 0
-0.059275709 -0.1988799 0.129667 0 0 0
-0.059271719 -0.1934412 0.1271695 0 0 0
-0.05928769 -0.1879946 0.1243802 0 0 0
-0.059291691 -0.182548 0.1226379 0 0 0
-0.059291691 -0.1769855 0.1216269 0 0 0
-0.059331652 -0.171359 0.1214791 0 0 0
-0.059311669 -0.1657206 0.1218068 0 0 0
-0.059303679 -0.1600142 0.1226899 0 0 0
-0.059303679 -0.1543038 0.1236609 0 0 0
-0.059311669 -0.1486015 0.1246999 0 0 0
-0.059315659 -0.142951 0.1251954 0 0 0
-0.059315659 -0.1371887 0.12670989 0 0 0
-0.059311669 -0.1314504 0.1281964 0 0 0
-0.059211768 -0.1256921 0.1288958 0 0 0
-0.059275709 -0.1201096 0.1290956 0 0 0
-0.05925573 -0.1144392 0.1295391 0 0 0
-0.059291691 -0.1088087 0.1302184 0 0 0
-0.05928769 -0.1031503 0.1307579 0 0 0
-0.059271719 -0.097427957 0.1315372 0 0 0
-0.05927971 -0.09180548 0.1323164 0 0 0
-0.05928769 -0.086035177 0.1335631 0 0 0
-0.05927971 -0.080292851 0.1350057 0 0 0
-0.059271719 -0.074618451 0.1360607 0 0 0
-0.059263721 -0.068988003 0.13659211 0 0 0
-0.059251741 -0.063433498 0.1360887 0 0 0
-0.059299689 -0.057966892 0.13436639 0 0 0
-0.059215769 -0.052404381 0.1334393 0 0 0
-0.059251741 -0.04675395 0.1341106 0 0 0
-0.05928769 -0.04115149 0.13433839 0 0 0
-0.05927971 -0.035544999 0.13429441 0 0 0
-0.0592837 -0.02996251 0.13389079 0 0 0
-0.059291691 -0.02428413 0.1342745 0 0 0
-0.059271719 -0.01864567 0.1341785 0 0 0
-0.059275709 -0.01301123 0.1338229 0 0 0
-0.05928769 -0.007392772 0.13333941 0 0 0
-0.05928769 -0.001790307 0.13249619 0 0 0
-0.059275709 0.0038521129 0.1324403 0 0 0
-0.05928769 0.009470596 0.1321725 0 0 0
-0.059275709 0.01508506 0.1313334 0 0 0
-0.059215769 0.020703509 0.1300626 0 0 0
-0.05916382 0.02632197 0.12870391 0 0 0
-0.059191789 0.031872481 0.1270656 0 0 0
-0.059155829 0.03749093 0.12561101 0 0 0
-0.059199791 0.043005511 0.1239207 0 0 0
-0.059119862 0.048639949 0.1211354 0 0 0
-0.059111871 0.05420246 0.1181544 0 0 0
-0.059191789 0.059645072 0.1149695 0 0 0
-0.059203781 0.06518361 0.1105299 0 0 0
-0.059263721 0.070430443 0.1066537 0 0 0
-0.05927971 0.075945012 0.1026576 0 0 0
-0.05927971 0.081375629 0.099001251 0 0 0
-0.059299689 0.087010071 0.094138049 0 0 0
-0.05928769 0.092244931 0.08979433 0 0 0
-0.05930768 0.097747467 0.083780266 0 0 0
-0.05715381 0.1089404 0.072175719 0 0 0
-0.05529964 0.1031502 0.079132847 0 0 0
-0.05304186 0.1090044 0.073862053 0 0 0
-0.0592837 0.1030383 0.077570394 0 0 0
0.2747108 0.026301989 0.02866664 0 0 0
0.2133593 -0.1707436 -0.1188758 0 0 0
0.2179268 -0.1703001 -0.1148677 0 0 0
0.2152295 -0.1761463 -0.1147119 0 0 0
-0.14185821 0.27872899 -0.25004241 0 0 0
-0.14149059 0.28507471 -0.2460783 0 0 0
-0.090109289 0.18082149 -0.002374735 0 0 0
-0.090844557 0.1807816 -0.0063627991 0 0 0
-0.091192223 0.18693949 -0.002374735 0 0 0
-0.1416904 -0.1961945 0.1106418 0 0 0
-0.1346733 -0.1910596 0.1106777 0 0 0
0.3266755 -0.14880531 -0.03902258 0 0 0
-0.1412828 0.31596419 -0.2830458 0 0 0
-0.13802999 0.31660759 -0.27857831 0 0 0
-0.063991047 0.2107081 -0.03690467 0 0 0
-0.1007508 -0.15915111 0.055368301 0 0 0
0.33893141 -0.1051803 -0.01451476 0 0 0
0.3398146 -0.1087048 -0.01546582 0 0 0
0.33814821 -0.1089406 -0.019357979 0 0 0
-0.2364289 0.22698 -0.0002408408 0 0 0
-0.2420394 0.2206223 0.00087006227 0 0 0
-0.23968171 0.2263886 0.004382601 0 0 0
0.080614284 0.049467131 0.1399488 0 0 0
0.14059509 -0.098542862 0.1859794 0 0 0
0.096546553 -0.1259598 0.1897637 0 0 0
0.1044707 0.038174279 0.1399049 0 0 0
0.1444713 0.087705389 0.1149655 0 0 0
0.1434283 0.085879207 0.1162522 0 0 0
-0.059427559 0.27516851 -0.01815916 0 0 0
-0.059323661 0.28112659 -0.019102231 0 0 0
-0.063459583 0.26921031 -0.01549379 0 0 0
-0.060350649 0.26958999 -0.018235089 0 0 0
-0.05927971 0.28710869 -0.021164199 0 0 0
-0.1024411 -0.1777247 0.090577573 0 0 0
-0.1010185 -0.1778806 0.094721466 0 0 0
-0.09872479 -0.1727057 0.092799373 0 0 0
-0.05874823 0.2213136 -0.05630153 0 0 0
-0.058448531 0.216794 -0.050451301 0 0 0
-0.2417157 -0.029670799 0.057713982 0 0 0
-0.239402 -0.035241321 0.057789899 0 0 0
-0.23971771 -0.032356139 0.05975597 0 0 0
-0.24042501 -0.040735889 0.033901479 0 0 0
-0.1402598 -0.2245186 0.058844861 0 0 0
-0.14121491 -0.2188402 0.058804911 0 0 0
-0.13738661 -0.2192557 0.054824829 0 0 0
0.1800162 0.1257319 -0.03286865 0 0 0
-0.2294398 0.1930974 -0.01928605 0 0 0
-0.055223711 -0.20996889 0.1318808 0 0 0
-0.055287652 -0.20439839 0.1311775 0 0 0
-0.055271659 -0.1988439 0.1297629 0 0 0
-0.055275649 -0.1934492 0.1271655 0 0 0
-0.055275649 -0.1880465 0.1242044 0 0 0
-0.055279661 -0.182556 0.1223023 0 0 0
-0.055279661 -0.1770054 0.1214032 0 0 0
-0.055283651 -0.17135499 0.121515 0 0 0
-0.055279661 -0.1657286 0.1218147 0 0 0
-0.055283651 -0.1600062 0.12257 0 0 0
-0.055295631 -0.1543318 0.1238128 0 0 0
-0.055275649 -0.14852551 0.1250356 0 0 0
-0.055291642 -0.1428791 0.12560301 0 0 0
-0.055315621 -0.1371647 0.1272893 0 0 0
-0.05525966 -0.13130251 0.12896369 0 0 0
-0.055279661 -0.1256641 0.1295951 0 0 0
-0.05525966 -0.1200097 0.1300306 0 0 0
-0.055267662 -0.1143552 0.13054609 0 0 0
-0.05525168 -0.1086968 0.1309098 0 0 0
-0.055295631 -0.1031503 0.1307659 0 0 0
-0.055279661 -0.097483903 0.1311895 0 0 0
-0.055279661 -0.091841437 0.131717 0 0 0
-0.055271659 -0.086163059 0.1328598 0 0 0
-0.055271659 -0.080420732 0.1343424 0 0 0
-0.055303629 -0.074590497 0.1358808 0 0 0
-0.055283651 -0.06897603 0.13660809 0 0 0
-0.05525168 -0.063373543 0.1364923 0 0 0
-0.055323601 -0.05793092 0.13500971 0 0 0
-0.055227701 -0.052240539 0.1355492 0 0 0
-0.055207729 -0.046546139 0.1365522 0 0 0
-0.055235699 -0.040947661 0.1366601 0 0 0
-0.055295631 -0.035381161 0.13633239 0 0 0
-0.05525168 -0.029830649 0.1356691 0 0 0
-0.05524369 -0.02422416 0.13512561 0 0 0
-0.055315621 -0.01861771 0.1344862 0 0 0
-0.055279661 -0.01298726 0.1342864 0 0 0
-0.055291642 -0.007360796 0.1338709 0 0 0
-0.05530763 -0.0017543409 0.1329757 0 0 0
-0.055263668 0.003856133 0.132672 0 0 0
-0.055279661 0.0094745858 0.1318648 0 0 0
-0.055283651 0.01504507 0.13078991 0 0 0
-0.055279661 0.020575641 0.1291955 0 0 0
-0.05525567 0.02622607 0.12750509 0 0 0
-0.055207729 0.031768601 0.12550309 0 0 0
-0.055171762 0.037387051 0.123609 0 0 0
-0.055107821 0.043001521 0.1212393 0 0 0
-0.055055872 0.048548039 0.1187338 0 0 0
-0.055187751 0.053978682 0.116432 0 0 0
-0.055175751 0.059593149 0.1135309 0 0 0
-0.055223711 0.065019771 0.1098665 0 0 0
-0.055239681 0.070514373 0.106326 0 0 0
-0.05525567 0.076016918 0.1027575 0 0 0
-0.05525966 0.081555463 0.098757491 0 0 0
-0.055283651 0.087042049 0.094205983 0 0 0
-0.055295631 0.092316873 0.089870267 0 0 0
-0.055275649 0.097607628 0.084615439 0 0 0
-0.05133554 0.1033739 0.080323681 0 0 0
0.2915422 -0.062558353 -0.0072099641 0 0 0
0.2918379 -0.062518403 -0.0032139081 0 0 0
0.28002149 0.01525688 0.024638619 0 0 0
0.279558 0.01524089 0.02863867 0 0 0
0.2910786 -0.04580288 0.0047262581 0 0 0
0.29053521 -0.040256359 0.0047182678 0 0 0
0.29041129 -0.040268332 0.0087023349 0 0 0
-0.086488873 0.1687095 0.0096134394 0 0 0
-0.1053183 0.1858965 -0.037943639 0 0 0
-0.1060176 0.1799424 -0.037751831 0 0 0
-0.16511931 0.17410409 -0.067586392 0 0 0
0.1394482 0.069671199 0.1245321 0 0 0
0.14039131 0.065535262 0.1243682 0 0 0
0.23052239 -0.2340212 -0.02400939 0 0 0
0.2353856 -0.232171 -0.024464941 0 0 0
-0.2307106 -0.068332657 0.01808908 0 0 0
-0.2266026 -0.072412632 0.021162041 0 0 0
-0.2313619 -0.06851247 0.02378346 0 0 0
-0.01481158 0.23686621 -0.059961919 0 0 0
0.096602499 -0.097991407 0.1931404 0 0 0
0.1285869 0.064076707 0.1299188 0 0 0
0.15649541 0.065335453 0.1209916 0 0 0
0.1525193 0.05986888 0.1227658 0 0 0
-0.051119749 -0.24045479 0.12636229 0 0 0
-0.055375561 0.2811186 -0.02077258 0 0 0
-0.05530763 0.2870647 -0.02178359 0 0 0
-0.055291642 0.2930268 -0.02447293 0 0 0
-0.084227093 0.1626514 0.0096094422 0 0 0
-0.086121231 0.1686416 0.01361349 0 0 0
0.281596 0.01538475 0.004682302 0 0 0
0.067555159 0.28821161 -0.12534539 0 0 0
-0.02621633 0.2303846 -0.0464033 0 0 0
-0.016573841 0.2359751 -0.045851842 0 0 0
-0.1119717 -0.2051177 0.046756789 0 0 0
0.1241393 0.1195979 0.095588617 0 0 0
0.1205429 0.1153781 0.099264979 0 0 0
-0.2469945 -0.01617213 0.05519646 0 0 0
-0.24741811 -0.01069352 0.055444218 0 0 0
-0.2478976 -0.013259 0.053657979 0 0 0
0.059171431 0.1307549 0.066329487 0 0 0
-0.051259629 -0.2101967 0.1304222 0 0 0
-0.05128359 -0.20460621 0.1291595 0 0 0
-0.051303569 -0.1991836 0.1283403 0 0 0
-0.05127161 -0.19350921 0.1258947 0 0 0
-0.051255621 -0.18809851 0.1234012 0 0 0
-0.05127161 -0.1825919 0.1221304 0 0 0
-0.051255621 -0.1770094 0.1213032 0 0 0
-0.051251631 -0.171367 0.1213432 0 0 0
-0.051263612 -0.1657685 0.1214231 0 0 0
-0.05127161 -0.1600861 0.1222903 0 0 0
-0.051279601 -0.15431979 0.1237089 0 0 0
-0.05128359 -0.1486095 0.1247239 0 0 0
-0.05128359 -0.14281119 0.1259786 0 0 0
-0.05128359 -0.1370129 0.12801661 0 0 0
-0.051291581 -0.1313505 0.1292274 0 0 0
-0.051279601 -0.12561209 0.1300187 0 0 0
-0.05128359 -0.1199657 0.13053811 0 0 0
-0.05128359 -0.1143073 0.13102169 0 0 0
-0.0512756 -0.1086968 0.1309737 0 0 0
-0.051287599 -0.1031463 0.13078991 0 0 0
-0.05128359 -0.097487889 0.1311615 0 0 0
-0.051287599 -0.091829479 0.131621 0 0 0
-0.051303569 -0.086119123 0.13248821 0 0 0
-0.051263612 -0.080508642 0.1333714 0 0 0
-0.05129559 -0.074750319 0.1346661 0 0 0
-0.051315568 -0.068988003 0.1358849 0 0 0
-0.051407479 -0.0634095 0.13576099 0 0 0
-0.05124763 -0.05783901 0.13552921 0 0 0
-0.051199671 -0.052048709 0.1374353 0 0 0
-0.051207669 -0.04642627 0.1380707 0 0 0
-0.051251631 -0.040835772 0.1382186 0 0 0
-0.0511797 -0.0352493 0.13803869 0 0 0
-0.051255621 -0.02971876 0.1372076 0 0 0
-0.051267602 -0.024100309 0.136748 0 0 0
-0.05128359 -0.01848183 0.1363484 0 0 0
-0.051291581 -0.01287138 0.1358529 0 0 0
-0.051331539 -0.007244919 0.1354453 0 0 0
-0.051259629 -0.001646444 0.13474201 0 0 0
-0.05124763 0.003908087 0.133683 0 0 0
-0.051319558 0.0095425276 0.1324922 0 0 0
-0.051331539 0.01510903 0.1310017 0 0 0
-0.05129559 0.02064757 0.1293873 0 0 0
-0.051467411 0.02638988 0.127621 0 0 0
-0.051267602 0.031756599 0.1249716 0 0 0
-0.051263612 0.03720323 0.1223182 0 0 0
-0.051211659 0.042785719 0.1194611 0 0 0
-0.051183689 0.04840019 0.1171234 0 0 0
-0.051159721 0.054030638 0.1147497 0 0 0
-0.05121566 0.059493229 0.112476 0 0 0
-0.05124364 0.06494385 0.1093071 0 0 0
-0.051227652 0.070590287 0.1059424 0 0 0
-0.051231649 0.076044902 0.102318 0 0 0
-0.05124364 0.081535481 0.098265968 0 0 0
-0.05127161 0.086958148 0.09412206 0 0 0
-0.051287599 0.09244474 0.089546569 0 0 0
-0.051315568 0.097839393 0.084871188 0 0 0
-0.048598249 0.1090124 0.075244687 0 0 0
-0.2412402 0.2319351 0.039016429 0 0 0
-0.2445609 0.230021 0.03199536 0 0 0
-0.24759389 0.2284665 0.036918499 0 0 0
0.2889767 -0.21396901 0.00099394016 0 0 0
0.34771481 -0.1468232 0.0126904 0 0 0
-0.1411349 0.28506669 -0.25008631 0 0 0
0.3365657 -0.1643219 0.04930228 0 0 0
0.33424401 -0.1639663 0.053937711 0 0 0
-0.16233 0.2251977 -0.20653731 0 0 0
0.1724557 0.098426796 0.102314 0 0 0
0.1485313 0.048807781 0.12967101 0 0 0
0.1486671 0.043321189 0.1384943 0 0 0
0.031694539 -0.2297654 0.17565361 0 0 0
0.02695122 -0.2290301 0.1774478 0 0 0
0.02633982 -0.2345846 0.17620111 0 0 0
0.088382617 -0.2076232 0.1553776 0 0 0
0.088482507 -0.2021286 0.15297601 0 0 0
0.084490448 -0.2020607 0.1540549 0 0 0
0.1005826 -0.080880269 0.19835921 0 0 0
-0.079727538 0.20325939 -0.036644921 0 0 0
-0.075999223 0.206696 -0.041356269 0 0 0
0.15648741 0.070917971 0.1190095 0 0 0
0.1524954 0.070961908 0.119557 0 0 0
-0.056886069 0.27553609 -0.02018117 0 0 0
-0.051347531 0.28708071 -0.023421969 0 0 0
-0.051195681 0.2930508 -0.024840569 0 0 0
0.2770884 0.02638988 0.0046783048 0 0 0
0.2769326 0.02632197 0.0086663729 0 0 0
-0.047299519 0.30474329 -0.032864649 0 0 0
-0.09729021 0.21724559 0.01934384 0 0 0
-0.098069437 0.2114193 0.021597611 0 0 0
0.00277507 0.24680839 -0.04634735 0 0 0
0.00536452 0.25268659 -0.04254311 0 0 0
-0.0004377591 0.24663261 -0.044009659 0 0 0
0.1005586 0.1100913 0.1069894 0 0 0
-0.263666 0.1116258 0.081074931 0 0 0
-0.2640177 0.1170405 0.081026994 0 0 0
-0.26458511 0.1116218 0.077090867 0 0 0
-0.1853873 0.2021165 -0.099702723 0 0 0
0.066672027 0.312076 -0.1474956 0 0 0
-0.047255561 -0.204798 0.1278927 0 0 0
-0.047283541 -0.1992235 0.1265021 0 0 0
-0.047275539 -0.19363301 0.1247918 0 0 0
-0.04726756 -0.1881464 0.1232373 0 0 0
-0.04724358 -0.1826079 0.1218547 0 0 0
-0.047255561 -0.17701741 0.1212713 0 0 0
-0.04724358 -0.17141099 0.1207518 0 0 0
-0.047199622 -0.1658764 0.120504 0 0 0
-0.04724358 -0.1601261 0.1217868 0 0 0
-0.04727155 -0.1543438 0.1231015 0 0 0
-0.047279552 -0.14864939 0.1241205 0 0 0
-0.047263559 -0.142947 0.12583479 0 0 0
-0.04727155 -0.1371288 0.1278208 0 0 0
-0.047287539 -0.1313425 0.1291755 0 0 0
-0.047291528 -0.1256002 0.1299347 0 0 0
-0.047291528 -0.1200377 0.1304103 0 0 0
-0.047287539 -0.1143193 0.13112959 0 0 0
-0.047291528 -0.1087608 0.1308099 0 0 0
-0.047295529 -0.1030864 0.1310176 0 0 0
-0.047287539 -0.097435936 0.1315372 0 0 0
-0.047283541 -0.091841437 0.1318009 0 0 0
-0.047295529 -0.086171038 0.1320646 0 0 0
-0.047295529 -0.080572568 0.1322165 0 0 0
-0.04736346 -0.07478229 0.13325951 0 0 0
-0.04733948 -0.069055937 0.1349058 0 0 0
-0.047291528 -0.063497417 0.1352455 0 0 0
-0.047279552 -0.057735112 0.1365522 0 0 0
-0.04723959 -0.051952809 0.13846231 0 0 0
-0.047235589 -0.04633835 0.1390337 0 0 0
-0.04724358 -0.040755861 0.1390817 0 0 0
-0.04724757 -0.035169389 0.1390617 0 0 0
-0.04726756 -0.02959488 0.138742 0 0 0
-0.0473275 -0.02400039 0.1380987 0 0 0
-0.04726756 -0.01836196 0.13775501 0 0 0
-0.04720363 -0.01272353 0.1376272 0 0 0
-0.047167659 -0.0071010571 0.13755921 0 0 0
-0.047215611 -0.001534557 0.1366601 0 0 0
-0.0472316 0.0040159542 0.13519751 0 0 0
-0.047343489 0.0096304175 0.1335472 0 0 0
-0.04732351 0.01513698 0.13185281 0 0 0
-0.047291528 0.02063158 0.1301865 0 0 0
-0.047287539 0.02615012 0.1281645 0 0 0
-0.047291528 0.031704649 0.12527931 0 0 0
-0.047287539 0.03720722 0.1218467 0 0 0
-0.04727155 0.04276973 0.118522 0 0 0
-0.047223601 0.048288301 0.1160764 0 0 0
-0.047251571 0.053886771 0.1140664 0 0 0
-0.047235589 0.05946527 0.1115409 0 0 0
-0.04726756 0.064855933 0.1087197 0 0 0
-0.04724757 0.070474394 0.105327 0 0 0
-0.047259569 0.075893059 0.1016546 0 0 0
-0.04724358 0.081455573 0.097234987 0 0 0
-0.047215611 0.08702606 0.092819348 0 0 0
-0.047283541 0.092424728 0.089095019 0 0 0
-0.04486192 0.1079974 0.076635323 0 0 0
0.29143429 -0.068168826 -0.007197977 0 0 0
0.2816959 0.0097862789 0.0246586 0 0 0
0.28146809 0.0097063389 0.02862668 0 0 0
0.34696749 -0.1303315 -0.0073977788 0 0 0
0.34778669 -0.13580211 -0.0033457759 0 0 0
0.30026561 -0.206856 -0.0029861301 0 0 0
0.097189918 0.02489138 0.1406002 0 0 0
0.09430477 0.024060201 0.1458151 0 0 0
0.098480649 0.0238484 0.14729761 0 0 0
-0.0043538921 0.2425486 -0.046043649 0 0 0
-0.0040581869 0.2410821 -0.049508229 0 0 0
-0.001408804 0.2427205 -0.050307449 0 0 0
0.01465934 -0.2267084 -0.0079412432 0 0 0
0.01050745 -0.2268922 -0.0086205732 0 0 0
0.01354844 -0.22622889 -0.01583346 0 0 0
0.14053521 -0.026338071 0.18542799 0 0 0
0.1485073 0.054090571 0.1252913 0 0 0
0.1125508 -0.0041040219 0.1839294 0 0 0
-0.15770259 0.23245861 -0.2187653 0 0 0
-0.1595927 0.2311679 -0.223013 0 0 0
0.1564554 0.076432519 0.1169036 0 0 0
-0.044905879 0.2277952 -0.060777109 0 0 0
-0.041429311 0.2273117 -0.058763102 0 0 0
-0.047083739 0.28722849 -0.026363069 0 0 0
-0.047251571 0.29309079 -0.02646297 0 0 0
-0.047291528 0.29903689 -0.028728729 0 0 0
-0.04332744 0.30492711 -0.032660849 0 0 0
0.28932431 -0.02915531 0.0086743636 0 0 0
0.28902471 -0.02916329 0.0126944 0 0 0
0.28953221 -0.03472982 0.0126944 0 0 0
-0.09173169 0.18082149 0.021617601 0 0 0
-0.1396284 0.24757171 -0.1501729 0 0 0
-0.14126679 0.27866101 -0.2580505 0 0 0
-0.05064822 0.2176172 -0.04067694 0 0 0
-0.1369071 -0.2136972 0.058792919 0 0 0
-0.1335424 -0.2140689 0.054784879 0 0 0
-0.2235776 0.23506001 0.062601157 0 0 0
-0.21851461 0.23655459 0.064307474 0 0 0
-0.1523639 0.32681751 -0.248376 0 0 0
-0.1548454 0.32559469 -0.2434729 0 0 0
-0.02799857 0.24257261 -0.07524284 0 0 0
-0.024254261 0.2417894 -0.073648423 0 0 0
0.052641869 0.001058875 0.1776716 0 0 0
0.056526039 0.0013466011 0.1783829 0 0 0
0.056641929 0.0063376781 0.17286441 0 0 0
-0.043303471 -0.193665 0.1242963 0 0 0
-0.043275502 -0.18815839 0.1227898 0 0 0
-0.043247528 -0.1826279 0.1214391 0 0 0
-0.043263499 -0.17706139 0.1206679 0 0 0
-0.043247528 -0.1715029 0.1197408 0 0 0
-0.043263499 -0.1658445 0.1200844 0 0 0
-0.043223549 -0.160226 0.1207878 0 0 0
-0.043263499 -0.1544477 0.1221264 0 0 0
-0.043251518 -0.1487653 0.1232054 0 0 0
-0.04328749 -0.1429271 0.1250436 0 0 0
-0.043275502 -0.1371488 0.1271695 0 0 0
-0.043275502 -0.13139839 0.1287159 0 0 0
-0.043307461 -0.12566011 0.1295111 0 0 0
-0.04332345 -0.1199537 0.1304222 0 0 0
-0.04329548 -0.1143552 0.130658 0 0 0
-0.04328749 -0.1087488 0.1306341 0 0 0
-0.043303471 -0.1030824 0.13101371 0 0 0
-0.043291479 -0.097443953 0.131641 0 0 0
-0.04329548 -0.091797501 0.1321805 0 0 0
-0.043279491 -0.086187027 0.1320926 0 0 0
-0.04329947 -0.080616541 0.131657 0 0 0
-0.043307461 -0.074914157 0.1326441 0 0 0
-0.043331441 -0.069199808 0.1335232 0 0 0
-0.043339439 -0.063477442 0.13443831 0 0 0
-0.043311451 -0.057679161 0.1370317 0 0 0
-0.04329947 -0.051948819 0.1385143 0 0 0
-0.04329548 -0.046342339 0.1391976 0 0 0
-0.04329947 -0.04072389 0.1396372 0 0 0
-0.04329548 -0.035129402 0.1395732 0 0 0
-0.04332345 -0.02963483 0.1386102 0 0 0
-0.04329548 -0.024052341 0.1373954 0 0 0
-0.043231539 -0.018306021 0.1380707 0 0 0
-0.043263499 -0.0126396 0.13880999 0 0 0
-0.043247528 -0.0069691921 0.1392815 0 0 0
-0.043151621 -0.001418681 0.1385103 0 0 0
-0.043251518 0.0041238512 0.13674399 0 0 0
-0.043259509 0.009634437 0.134726 0 0 0
-0.043315459 0.01526486 0.1334313 0 0 0
-0.043243531 0.020687521 0.1315971 0 0 0
-0.04329947 0.02623006 0.12875991 0 0 0
-0.043315459 0.031768601 0.12538721 0 0 0
-0.043311451 0.037223209 0.1218547 0 0 0
-0.043307461 0.042709801 0.1188497 0 0 0
-0.043307461 0.048264299 0.1163881 0 0 0
-0.04329947 0.053858791 0.1140024 0 0 0
-0.043279491 0.059365351 0.111369 0 0 0
-0.043263499 0.064955853 0.1079165 0 0 0
-0.043259509 0.070442438 0.104332 0 0 0
-0.043227538 0.075893059 0.1002161 0 0 0
-0.043251518 0.081335679 0.095664538 0 0 0
-0.043275502 0.086774327 0.092024133 0 0 0
-0.04328749 0.092364803 0.089035086 0 0 0
-0.04328749 0.097835399 0.085842229 0 0 0
0.28927639 -0.040400229 -0.01516612 0 0 0
0.28989181 -0.04032829 -0.01120602 0 0 0
0.29045919 -0.045874819 -0.01121002 0 0 0
0.28463301 -0.001310784 0.0246586 0 0 0
0.28530031 -0.0068612951 0.028670641 0 0 0
0.1898585 -0.21912789 -0.082691491 0 0 0
0.2264984 -0.096189164 -0.1189757 0 0 0
0.097002096 -0.2096173 0.1527282 0 0 0
-0.1392888 0.29133651 -0.26205859 0 0 0
-0.17198449 0.1904241 0.143837 0 0 0
-0.1753612 0.18581261 0.1480808 0 0 0
0.1245709 -0.020663681 0.18604741 0 0 0
0.1048064 0.1101393 0.1064379 0 0 0
0.1015496 0.1117017 0.1051312 0 0 0
0.1484793 0.059741002 0.1228977 0 0 0
0.1313282 -0.046598092 0.1896918 0 0 0
0.13259099 -0.042729929 0.1898796 0 0 0
0.1006185 -0.086566657 0.19701651 0 0 0
0.0065633352 0.33470169 -0.075678423 0 0 0
0.01006788 0.34064791 -0.077580526 0 0 0
0.0085973265 0.34117141 -0.075298794 0 0 0
0.29643741 -0.15209401 0.090713419 0 0 0
0.14448731 0.059840892 0.123561 0 0 0
0.1445232 -0.020983379 0.18205529 0 0 0
0.1405431 -0.020891471 0.1830703 0 0 0
0.13650709 0.104301 0.1082361 0 0 0
0.1365151 0.1099035 0.104356 0 0 0
-0.043439329 0.29303479 -0.02892454 0 0 0
-0.043227538 0.2990928 -0.029651821 0 0 0
-0.039291419 0.31092921 -0.037468109 0 0 0
0.2789346 0.020807389 0.01265444 0 0 0
0.278543 0.0208154 0.01665449 0 0 0
0.28061691 0.01532881 0.016658479 0 0 0
0.1880123 -0.2400952 -0.041911729 0 0 0
0.19067369 -0.2360951 -0.046647061 0 0 0
-0.032869771 0.31653959 -0.087566689 0 0 0
-0.03481983 0.3109332 -0.088857412 0 0 0
-0.037317369 0.31640381 -0.083466731 0 0 0
-0.2650007 0.1170325 0.077058896 0 0 0
-0.039335381 -0.19364101 0.1247159 0 0 0
-0.039323401 -0.18818641 0.1222703 0 0 0
0.021077011 0.1232303 -0.031785719 0 0 0
0.016397631 0.1242014 -0.024720689 0 0 0
-0.039219499 -0.1827358 0.1203961 0 0 0
-0.039243471 -0.1771853 0.1192493 0 0 0
-0.039223488 -0.1715868 0.1187058 0 0 0
-0.039211512 -0.1659963 0.1187298 0 0 0
-0.039251469 -0.1602979 0.1195969 0 0 0
-0.039291419 -0.1545236 0.1210035 0 0 0
-0.03929542 -0.14880531 0.1220106 0 0 0
-0.03929941 -0.1430469 0.1235051 0 0 0
-0.03929542 -0.13721269 0.1260666 0 0 0
-0.039251469 -0.13149031 0.1277369 0 0 0
-0.039267451 -0.12578 0.1287359 0 0 0
-0.039267451 -0.1200776 0.12975091 0 0 0
-0.03927144 -0.1144511 0.1297269 0 0 0
-0.039307412 -0.1087927 0.1300666 0 0 0
-0.039323401 -0.1030784 0.1309098 0 0 0
-0.039303418 -0.097447932 0.1316171 0 0 0
-0.039307412 -0.091789521 0.13207661 0 0 0
-0.039303418 -0.086179048 0.1321326 0 0 0
-0.039287429 -0.080620527 0.1317929 0 0 0
-0.039319389 -0.074962117 0.1320526 0 0 0
-0.039359361 -0.06926772 0.1324283 0 0 0
-0.039307412 -0.063569352 0.1342265 0 0 0
-0.039363351 -0.05769515 0.1364443 0 0 0
-0.039319389 -0.052060708 0.13772701 0 0 0
-0.03932739 -0.046390299 0.13870209 0 0 0
-0.039359361 -0.040751871 0.1390418 0 0 0
-0.03935536 -0.03519335 0.1384104 0 0 0
-0.039307412 -0.02975071 0.1362845 0 0 0
-0.039279431 -0.024072319 0.13659211 0 0 0
-0.03929542 -0.01832998 0.13836239 0 0 0
-0.039211512 -0.01251172 0.1400488 0 0 0
-0.03923149 -0.0068652849 0.14069609 0 0 0
-0.039223488 -0.001330761 0.13966911 0 0 0
-0.03920351 0.0041678259 0.13806669 0 0 0
-0.039207499 0.0096663833 0.13608471 0 0 0
-0.039287429 0.01531282 0.1348259 0 0 0
-0.03925946 0.02075544 0.1326521 0 0 0
-0.039315399 0.026305979 0.1293593 0 0 0
-0.03929542 0.03172861 0.12621839 0 0 0
-0.03932739 0.037279159 0.1228577 0 0 0
-0.039319389 0.042717781 0.1197608 0 0 0
-0.039335381 0.048284281 0.1168636 0 0 0
-0.039343368 0.053882759 0.114474 0 0 0
-0.039319389 0.059345379 0.1117607 0 0 0
-0.03929941 0.06470409 0.1080203 0 0 0
-0.039287429 0.070354521 0.1037246 0 0 0
-0.03927144 0.07587707 0.099252999 0 0 0
-0.03928344 0.08121179 0.095033161 0 0 0
-0.039291419 0.086826257 0.091632523 0 0 0
-0.03929941 0.092176989 0.08925087 0 0 0
-0.03929941 0.097731523 0.085718349 0 0 0
-0.03528738 0.097775467 0.085286766 0 0 0
0.2911146 -0.057011832 -0.01121801 0 0 0
0.2869947 -0.0068293191 -0.01524604 0 0 0
0.2858358 -0.001314773 -0.01523005 0 0 0
0.2849367 -0.001358718 -0.019230099 0 0 0
0.28434929 0.0042157602 -0.01523405 0 0 0
-0.14136671 0.2664291 -0.1501649 0 0 0
-0.1192765 -0.1977969 -0.060009871 0 0 0
-0.1195962 -0.20248429 -0.063642293 0 0 0
-0.1245353 -0.1991356 -0.05769616 0 0 0
0.25683641 0.053511132 -0.035270281 0 0 0
0.25530589 0.053415231 -0.039262339 0 0 0
0.25348371 0.05903767 -0.03495859 0 0 0
-0.1386774 0.29765421 -0.26206651 0 0 0
0.13652711 0.115466 0.099828437 0 0 0
0.27308041 -0.1223633 0.07792604 0 0 0
0.26856491 -0.1353825 0.083300732 0 0 0
0.1103489 0.02217406 0.1516373 0 0 0
0.1138775 0.020735459 0.152924 0 0 0
-0.078009233 0.1476143 -0.0070621101 0 0 0
-0.079619639 0.1501918 -0.006282879 0 0 0
-0.078604631 0.1501438 -0.001439656 0 0 0
0.098021097 0.1130364 0.1037286 0 0 0
-0.03932739 0.29902491 -0.032009501 0 0 0
-0.04759923 0.28142229 -0.027841611 0 0 0
-0.05028858 0.28145429 -0.024676731 0 0 0
-0.039127599 0.30504301 -0.033360161 0 0 0
-0.035167489 0.31096119 -0.037300281 0 0 0
0.25174141 0.058885831 -0.039246362 0 0 0
-0.20036051 0.1074899 0.1742949 0 0 0
0.2089397 -0.2338973 -0.03592563 0 0 0
0.203537 -0.2363549 -0.03475479 0 0 0
0.20356899 0.09239278 0.090981163 0 0 0
0.044717692 0.1147347 0.087073021 0 0 0
0.079807073 0.1382435 -0.030131349 0 0 0
-0.094329134 0.087949172 0.093850322 0 0 0
-0.097757749 0.087837256 0.09582039 0 0 0
0.073481306 0.14058121 0.042417072 0 0 0
-0.1092304 0.2328382 0.038724709 0 0 0
-0.035423249 -0.18801861 0.1224741 0 0 0
-0.035303362 -0.1828237 0.1195809 0 0 0
-0.035279378 -0.1773012 0.1180784 0 0 0
-0.03520745 -0.1717266 0.1172113 0 0 0
-0.035295371 -0.1660762 0.1173991 0 0 0
-0.035187472 -0.1605377 0.1177348 0 0 0
-0.035239421 -0.1547354 0.1191214 0 0 0
-0.035271391 -0.1489771 0.120512 0 0 0
-0.035239421 -0.1432348 0.1221504 0 0 0
-0.03531136 -0.13734061 0.1245241 0 0 0
-0.035307351 -0.1315942 0.1260386 0 0 0
-0.035299361 -0.1258439 0.1275771 0 0 0
-0.035279378 -0.1202055 0.1281645 0 0 0
-0.035339329 -0.1145271 0.1284762 0 0 0
-0.03534732 -0.1088207 0.1294392 0 0 0
-0.035295371 -0.1031783 0.1301465 0 0 0
-0.035335321 -0.09747991 0.1310257 0 0 0
-0.035275389 -0.091889411 0.1313054 0 0 0
-0.035291381 -0.086227007 0.1317609 0 0 0
-0.035307351 -0.080616541 0.131685 0 0 0
-0.035331331 -0.075006068 0.1315212 0 0 0
-0.03535131 -0.069375612 0.13150521 0 0 0
-0.0353553 -0.063633278 0.1330597 0 0 0
-0.035371289 -0.057886951 0.1345302 0 0 0
-0.035415251 -0.052116651 0.1364723 0 0 0
-0.035423249 -0.046498202 0.13699581 0 0 0
-0.035423249 -0.04086376 0.13740741 0 0 0
-0.035167489 -0.035401139 0.1364563 0 0 0
-0.03519547 -0.02976271 0.135777 0 0 0
-0.035275389 -0.023944451 0.136796 0 0 0
-0.0352594 -0.01819413 0.13904969 0 0 0
-0.03528339 -0.01244378 0.1412995 0 0 0
-0.035223439 -0.0067973719 0.1415672 0 0 0
-0.035243411 -0.0012428419 0.1406921 0 0 0
-0.03519547 0.0042317482 0.1390577 0 0 0
-0.035187472 0.0097223269 0.1370437 0 0 0
-0.035251409 0.01528085 0.1351895 0 0 0
-0.03536329 0.02085535 0.1326201 0 0 0
-0.03528738 0.026254021 0.129703 0 0 0
-0.035331331 0.031808559 0.1268298 0 0 0
-0.035339329 0.037331112 0.1238447 0 0 0
-0.03535131 0.042785719 0.1203322 0 0 0
-0.035379279 0.04834424 0.1174231 0 0 0
-0.035331331 0.05380683 0.1152292 0 0 0
-0.03532334 0.059317421 0.1121882 0 0 0
-0.03531136 0.064764023 0.1080883 0 0 0
-0.03531535 0.070334539 0.1036886 0 0 0
-0.035307351 0.075713232 0.099516742 0 0 0
-0.035303362 0.081255756 0.095093109 0 0 0
-0.035303362 0.086854242 0.091664493 0 0 0
-0.035291381 0.092372797 0.089031093 0 0 0
0.3332051 -0.1760184 -0.0032059141 0 0 0
0.3365258 -0.1700803 -0.0032179011 0 0 0
-0.031295311 0.092332818 0.088967137 0 0 0
-0.0313113 0.097639613 0.084651411 0 0 0
0.2909508 -0.05142935 -0.01120602 0 0 0
0.28635931 -0.0068972609 -0.019218121 0 0 0
0.2835381 0.0042037908 -0.019254079 0 0 0
0.2819396 0.0097063389 -0.019242089 0 0 0
0.2825191 0.0097702909 -0.01526602 0 0 0
-0.1214624 -0.1708515 -0.017292021 0 0 0
-0.1206392 -0.17088351 -0.01324002 0 0 0
-0.1202635 -0.1654049 -0.017268039 0 0 0
0.28291869 -0.046494208 -0.03915045 0 0 0
0.28384581 -0.046502192 -0.03508646 0 0 0
0.2884452 -0.040448159 -0.01917416 0 0 0
0.1405431 -0.1041493 0.1848805 0 0 0
0.14848331 0.01113693 0.1592498 0 0 0
0.080626257 0.098926343 0.1148496 0 0 0
0.3450534 -0.1526655 0.024714541 0 0 0
0.1005666 0.077143833 0.1301066 0 0 0
0.154873 0.102311 0.1048595 0 0 0
0.1590049 0.1024468 0.1038605 0 0 0
0.14622951 0.075177766 0.1202803 0 0 0
0.1404992 0.1098555 0.1043 0 0 0
0.20045599 0.002597362 0.1496553 0 0 0
0.19663981 0.0025254311 0.1511858 0 0 0
-0.03531136 0.305015 -0.035234321 0 0 0
-0.027275279 0.31102511 -0.042175461 0 0 0
-0.026200339 0.30507901 -0.045971721 0 0 0
-0.022663821 0.31102109 -0.047805909 0 0 0
-0.24892861 0.002705259 -0.0022308759 0 0 0
-0.2412522 0.1878186 0.0007981346 0 0 0
0.092582457 0.1152342 0.1011351 0 0 0
-0.1096021 0.2312198 0.050217379 0 0 0
0.071135633 0.1397181 0.047372181 0 0 0
-0.25474289 0.1444934 0.1207798 0 0 0
-0.25337219 0.1499839 0.1207438 0 0 0
-0.253548 0.1500119 0.1167877 0 0 0
-0.25994581 0.13351621 0.096915297 0 0 0
-0.25816351 0.13897879 0.096887328 0 0 0
-0.035027631 -0.1903283 0.1259906 0 0 0
0.03663367 -0.0988985 0.1809724 0 0 0
0.032601651 -0.094934411 0.17994539 0 0 0
0.033776488 -0.1005808 0.1789064 0 0 0
-0.031275339 -0.1773051 0.1172672 0 0 0
-0.031247361 -0.1717906 0.1161683 0 0 0
-0.031307299 -0.1662201 0.1159046 0 0 0
-0.03128333 -0.1605657 0.11648 0 0 0
-0.031219389 -0.1549232 0.1171274 0 0 0
-0.03123937 -0.1491769 0.1186059 0 0 0
-0.031227389 -0.1433706 0.1206519 0 0 0
-0.031251349 -0.1376083 0.1221264 0 0 0
-0.031411201 -0.1317261 0.1237888 0 0 0
-0.031399209 -0.12599181 0.1253313 0 0 0
-0.03132328 -0.1203653 0.12602261 0 0 0
-0.031275339 -0.1147269 0.1266979 0 0 0
-0.031359252 -0.1089126 0.1284802 0 0 0
-0.031331278 -0.1032222 0.1295511 0 0 0
-0.031339269 -0.097563811 0.1300506 0 0 0
-0.031291321 -0.091965333 0.1302384 0 0 0
-0.03128732 -0.086314902 0.13072599 0 0 0
-0.031327289 -0.080656499 0.1310976 0 0 0
-0.031351261 -0.075046033 0.1309897 0 0 0
-0.031351261 -0.069463544 0.1305221 0 0 0
-0.03128333 -0.063849069 0.1312654 0 0 0
-0.03128732 -0.058150709 0.13228039 0 0 0
-0.03140321 -0.05232444 0.13399871 0 0 0
-0.031347271 -0.046745941 0.13415059 0 0 0
-0.0314072 -0.041035581 0.1349218 0 0 0
-0.0313113 -0.035469081 0.1346021 0 0 0
-0.031327289 -0.02971876 0.1353454 0 0 0
-0.031295311 -0.023976419 0.1377071 0 0 0
-0.03128333 -0.018106209 0.140772 0 0 0
-0.031267341 -0.01235988 0.1421587 0 0 0
-0.031227389 -0.0067533981 0.1419429 0 0 0
-0.0312993 -0.001166921 0.1414154 0 0 0
-0.031263351 0.0043676319 0.1402566 0 0 0
-0.0312114 0.0098382328 0.13857821 0 0 0
-0.031275339 0.01537675 0.1362645 0 0 0
-0.03125935 0.020811411 0.1336631 0 0 0
-0.031335268 0.02642986 0.13091379 0 0 0
-0.031315289 0.031844519 0.1277848 0 0 0
-0.031351261 0.037383031 0.1248557 0 0 0
-0.031383239 0.04286962 0.1209116 0 0 0
-0.031335268 0.048328251 0.1187458 0 0 0
-0.031455152 0.053974669 0.1161044 0 0 0
-0.031355262 0.059453279 0.1128236 0 0 0
-0.031363241 0.064947844 0.108328 0 0 0
-0.031359252 0.070454411 0.1038245 0 0 0
-0.031339269 0.075817138 0.09964861 0 0 0
-0.03131929 0.081207797 0.095492713 0 0 0
-0.031303309 0.086766317 0.09200415 0 0 0
-0.1375145 0.29105279 -0.27490991 0 0 0
0.3288174 -0.1819645 -0.003169952 0 0 0
0.32966459 -0.1817368 0.0008341003 0 0 0
0.34941709 -0.1245652 0.02866664 0 0 0
0.314044 -0.1947519 -0.0031140051 0 0 0
0.32195619 -0.1880146 -0.003102018 0 0 0
0.3154186 -0.1945122 0.0008820534 0 0 0
0.28949621 -0.034749791 -0.01122201 0 0 0
0.021936171 0.35812661 -0.088401861 0 0 0
0.019382689 0.35241619 -0.085073151 0 0 0
0.02198812 0.3524043 -0.088258013 0 0 0
0.028293891 0.2585409 -0.08220797 0 0 0
0.1450946 -0.1438581 0.17467061 0 0 0
0.1491307 -0.1437902 0.17365161 0 0 0
0.1459218 -0.13831159 0.1750582 0 0 0
0.29996991 -0.1579123 0.088667437 0 0 0
0.30002579 -0.1524656 0.088847257 0 0 0
0.1485952 0.016399739 0.1571759 0 0 0
0.080578312 0.001462477 0.1830263 0 0 0
0.1005586 -0.1258439 0.19059891 0 0 0
-0.048897941 -0.2411541 0.1204361 0 0 0
-0.053021889 -0.241302 0.1196849 0 0 0
0.14050721 -0.2182847 0.14521959 0 0 0
0.1449029 -0.218033 0.1446562 0 0 0
-0.031291321 0.30507901 -0.039042559 0 0 0
-0.03111949 0.311149 -0.03917842 0 0 0
-0.02718736 0.31715509 -0.043034621 0 0 0
0.02995226 -0.2446627 -0.1214532 0 0 0
0.02829789 -0.2426167 -0.1161984 0 0 0
0.02598018 -0.2445108 -0.1223843 0 0 0
-0.2418955 0.029259071 -0.01025096 0 0 0
-0.237424 0.06175499 -0.0065506138 0 0 0
-0.24280261 0.067433409 -0.0066025639 0 0 0
-0.24095251 0.067281537 -0.01062659 0 0 0
-0.072866298 0.1162492 0.06044329 0 0 0
-0.07443276 0.121504 0.059676051 0 0 0
-0.076578647 0.1214681 0.063036732 0 0 0
-0.02730724 0.097615607 0.083660387 0 0 0
-0.076039173 0.12682679 0.059092619 0 0 0
0.068374351 0.137788 0.052167449 0 0 0
0.1351645 0.14042941 -0.032321189 0 0 0
0.16781621 -0.2408904 -0.090515777 0 0 0
0.1636124 -0.2410942 -0.091103204 0 0 0
0.1662858 -0.24144191 -0.097952433 0 0 0
-0.02639615 0.23100799 -0.051622149 0 0 0
-0.027275279 -0.1772732 0.1168916 0 0 0
-0.02718736 -0.1664319 0.1142142 0 0 0
-0.0271514 -0.17184649 0.1148176 0 0 0
-0.027231321 -0.1607535 0.1146059 0 0 0
-0.02725929 -0.1550431 0.115521 0 0 0
-0.027303251 -0.14926881 0.1169356 0 0 0
-0.027203349 -0.1435744 0.1186898 0 0 0
-0.027283279 -0.13781209 0.119513 0 0 0
-0.027319239 -0.1320378 0.1209716 0 0 0
-0.027231321 -0.12637541 0.1221224 0 0 0
-0.027355211 -0.1205811 0.1234531 0 0 0
-0.02732723 -0.1148388 0.12501159 0 0 0
-0.027355211 -0.1090844 0.12647019 0 0 0
-0.02729526 -0.1034101 0.127645 0 0 0
-0.02731524 -0.097747616 0.1280885 0 0 0
-0.027303251 -0.092093207 0.128656 0 0 0
-0.02747908 -0.086370848 0.12925141 0 0 0
-0.02733122 -0.080792353 0.1295871 0 0 0
-0.02734321 -0.075133942 0.13005459 0 0 0
-0.02733122 -0.069555447 0.1295711 0 0 0
-0.02733523 -0.063901022 0.1300386 0 0 0
-0.02729526 -0.058314551 0.13024241 0 0 0
-0.02729526 -0.052572209 0.131753 0 0 0
-0.02730724 -0.046969749 0.1317329 0 0 0
-0.027311251 -0.041255359 0.1326361 0 0 0
-0.02730724 -0.03562491 0.1332674 0 0 0
-0.027303251 -0.029714741 0.1360887 0 0 0
-0.027275279 -0.02376063 0.1395293 0 0 0
-0.027283279 -0.017982321 0.1415233 0 0 0
-0.027275279 -0.01233592 0.1419629 0 0 0
-0.027283279 -0.006773375 0.14171509 0 0 0
-0.02729127 -0.001142954 0.141839 0 0 0
-0.027283279 0.0044595408 0.1413555 0 0 0
-0.027395161 0.01007799 0.1401087 0 0 0
-0.02724731 0.01546865 0.1381986 0 0 0
-0.027235329 0.02089132 0.1355772 0 0 0
-0.027371179 0.02655774 0.1320406 0 0 0
-0.027287271 0.03188847 0.12922341 0 0 0
-0.0273632 0.03745098 0.1258907 0 0 0
-0.027351201 0.042893618 0.1223103 0 0 0
-0.02737518 0.048472121 0.1198886 0 0 0
-0.02737917 0.053994671 0.1168836 0 0 0
-0.02733922 0.0594333 0.1137267 0 0 0
-0.027351201 0.064931847 0.1092431 0 0 0
-0.027371179 0.070470393 0.104332 0 0 0
-0.02733523 0.075757183 0.1005118 0 0 0
-0.02738717 0.081527501 0.095884323 0 0 0
-0.027319239 0.08677832 0.09248367 0 0 0
-0.02729526 0.092384778 0.088527583 0 0 0
0.034551721 -0.2231359 0.174291 0 0 0
0.030711509 -0.22328781 0.1758454 0 0 0
0.084570371 -0.097939447 0.19302849 0 0 0
0.084570371 -0.092113189 0.1963892 0 0 0
-0.0138725 0.24441481 -0.073916152 0 0 0
-0.01406432 0.24036279 -0.067338638 0 0 0
0.29644129 -0.146052 0.090325803 0 0 0
0.2964054 -0.1404935 0.089262851 0 0 0
0.29638541 -0.1350069 0.087240852 0 0 0
0.30365819 -0.14691509 0.087029062 0 0 0
0.30442551 -0.1407492 0.086697392 0 0 0
0.30029351 -0.1465994 0.088607498 0 0 0
0.1125707 -0.059145719 0.1925929 0 0 0
-0.1665978 0.2282467 -0.2207313 0 0 0
-0.1618225 0.23070429 -0.2265296 0 0 0
0.1452785 0.1076337 0.1051112 0 0 0
-0.03108751 0.31690729 -0.042123519 0 0 0
-0.15536091 0.2004182 -0.103475 0 0 0
-0.027359201 0.32277751 -0.0485292 0 0 0
-0.2436139 0.171215 -0.01115407 0 0 0
-0.1628096 0.18255579 -0.068497501 0 0 0
0.29967809 -0.1017917 0.062541217 0 0 0
0.04270367 0.3677291 -0.1244583 0 0 0
0.041097261 0.3676652 -0.1192235 0 0 0
0.04255183 0.36258221 -0.118688 0 0 0
-0.1424257 0.1907717 -0.061260641 0 0 0
0.065577097 0.1360337 0.056982711 0 0 0
-0.1691633 0.1799424 -0.067458518 0 0 0
-0.1712452 0.1851413 -0.069728293 0 0 0
-0.16704939 0.18379059 -0.069188818 0 0 0
-0.023307201 -0.1720663 0.113407 0 0 0
-0.02321928 -0.16649979 0.1127357 0 0 0
-0.023211289 -0.16089331 0.1131992 0 0 0
-0.02327523 -0.155191 0.1139825 0 0 0
-0.023375129 -0.1493807 0.1152372 0 0 0
-0.023327179 -0.1436424 0.1168996 0 0 0
-0.02333517 -0.13792799 0.1178946 0 0 0
-0.023327179 -0.13226961 0.1184221 0 0 0
-0.023355151 -0.1265153 0.1198807 0 0 0
-0.023403101 -0.120737 0.1212992 0 0 0
-0.02331518 -0.1150705 0.122518 0 0 0
-0.023331171 -0.1093082 0.1240006 0 0 0
-0.02327523 -0.1036258 0.1251035 0 0 0
-0.02339511 -0.097895481 0.1258827 0 0 0
-0.023307201 -0.092269048 0.126618 0 0 0
-0.02335115 -0.086594649 0.1270216 0 0 0
-0.02329121 -0.0809642 0.1277169 0 0 0
-0.02334716 -0.07520587 0.1290037 0 0 0
-0.023295199 -0.069655359 0.1287799 0 0 0
-0.02331518 -0.063984953 0.1290037 0 0 0
-0.023287211 -0.058238629 0.1297189 0 0 0
-0.023287211 -0.052616149 0.1304702 0 0 0
-0.02331119 -0.04704567 0.130714 0 0 0
-0.02329121 -0.041319311 0.13156509 0 0 0
-0.02331119 -0.03562491 0.13329139 0 0 0
-0.023283221 -0.029602859 0.1376231 0 0 0
-0.023307201 -0.023840539 0.139837 0 0 0
-0.023295199 -0.018038269 0.1410078 0 0 0
-0.02331119 -0.01241982 0.1411037 0 0 0
-0.023295199 -0.0067574172 0.1416232 0 0 0
-0.02326324 -0.0011029691 0.1420068 0 0 0
-0.02329921 0.004531472 0.14237051 0 0 0
-0.02326723 0.01005802 0.1412556 0 0 0
-0.023331171 0.015628509 0.1394214 0 0 0
-0.023279229 0.02103119 0.13674399 0 0 0
-0.023327179 0.02654973 0.13336331 0 0 0
-0.023327179 0.03202834 0.13035829 0 0 0
-0.023331171 0.03750293 0.1273333 0 0 0
-0.023379119 0.043049451 0.1239606 0 0 0
-0.02333916 0.048460118 0.1212473 0 0 0
-0.02335115 0.053978682 0.1177747 0 0 0
-0.02333916 0.059457261 0.1142142 0 0 0
-0.023355151 0.064931847 0.1097067 0 0 0
-0.02338312 0.070502371 0.105307 0 0 0
-0.02337114 0.075945012 0.1012151 0 0 0
-0.02339112 0.08155147 0.096831389 0 0 0
-0.02333517 0.086890213 0.092591569 0 0 0
-0.023307201 0.09225291 0.087864242 0 0 0
-0.082584709 0.15946659 0.01207501 0 0 0
-0.083911411 0.1625236 0.01362148 0 0 0
0.28998369 -0.029107351 0.00071421952 0 0 0
0.28958809 -0.02350089 0.00070622552 0 0 0
0.25495431 -0.088093147 -0.087039202 0 0 0
0.25014299 -0.088468798 -0.091271028 0 0 0
0.25377151 -0.082590573 -0.086879373 0 0 0
0.31514689 -0.1887459 -0.02295843 0 0 0
0.31676531 -0.1887618 -0.01906627 0 0 0
0.32594821 -0.1767617 -0.023150239 0 0 0
0.32375839 -0.18228421 -0.01901032 0 0 0
0.28392971 -0.040775839 -0.039166439 0 0 0
0.28459299 -0.040783849 -0.035210341 0 0 0
0.2963694 -0.1295563 0.084291764 0 0 0
0.1582337 -0.12716261 0.1719213 0 0 0
0.1596563 -0.1215162 0.1740312 0 0 0
0.1554524 -0.121736 0.1750063 0 0 0
0.124499 0.054681979 0.131689 0 0 0
0.1245429 -0.0097504621 0.1825588 0 0 0
0.1285909 -0.059573289 0.1871103 0 0 0
0.02826992 0.36622661 -0.1011932 0 0 0
0.02583232 0.36449629 -0.096417949 0 0 0
0.14859121 0.038138319 0.1432056 0 0 0
-0.06967745 0.21921159 -0.055146672 0 0 0
-0.02869389 0.3051149 -0.04248317 0 0 0
-0.02331119 0.31700721 -0.04548021 0 0 0
-0.018959491 0.3290593 -0.052637141 0 0 0
-0.017972451 0.33176059 -0.055282541 0 0 0
0.28974 -0.075337738 0.045486052 0 0 0
0.28798971 -0.080496646 0.050141461 0 0 0
-0.18066791 0.2237152 -0.20713671 0 0 0
0.1164349 0.1158057 0.098881371 0 0 0
0.062564082 0.1338678 0.061749998 0 0 0
0.09585125 -0.2294057 0.01825691 0 0 0
0.094208866 -0.2274437 0.023403831 0 0 0
0.090940088 -0.2259931 0.0214098 0 0 0
-0.057445519 0.23342159 -0.066915058 0 0 0
-0.061201811 0.2319831 -0.06534861 0 0 0
-0.06140561 0.23338971 -0.066379577 0 0 0
-0.16284551 0.1913352 -0.080793358 0 0 0
-0.019251199 -0.1609533 0.1120164 0 0 0
-0.01922323 -0.1666836 0.1116727 0 0 0
-0.019311139 -0.1553148 0.112384 0 0 0
-0.019291161 -0.1496125 0.113459 0 0 0
-0.01948696 -0.1438382 0.1149935 0 0 0
-0.01931913 -0.13811579 0.1159206 0 0 0
-0.01930715 -0.1324134 0.1169595 0 0 0
-0.0193471 -0.12668709 0.1179026 0 0 0
-0.01927517 -0.1210167 0.1190655 0 0 0
-0.01929515 -0.1152584 0.12054 0 0 0
-0.019359089 -0.1094721 0.1219027 0 0 0
-0.0193471 -0.1037817 0.1229616 0 0 0
-0.019327121 -0.098091297 0.1240286 0 0 0
-0.019339111 -0.092380933 0.1249756 0 0 0
-0.01941104 -0.086622611 0.125635 0 0 0
-0.01931514 -0.081032112 0.1265581 0 0 0
-0.019311139 -0.075337738 0.1275451 0 0 0
-0.0192472 -0.069579408 0.1282524 0 0 0
-0.019383069 -0.064116821 0.1284242 0 0 0
-0.019423019 -0.058478389 0.12907159 0 0 0
-0.019359089 -0.05270806 0.1303183 0 0 0
-0.01940305 -0.047077611 0.13096569 0 0 0
-0.019283161 -0.041255359 0.132664 0 0 0
-0.01934311 -0.035568971 0.13439029 0 0 0
-0.019263189 -0.02951896 0.1385942 0 0 0
-0.019255189 -0.0237846 0.1395133 0 0 0
-0.01930715 -0.018114191 0.1406801 0 0 0
-0.019311139 -0.01247576 0.14079601 0 0 0
-0.01929915 -0.0067414292 0.1416112 0 0 0
-0.019303139 -0.001094989 0.1423185 0 0 0
-0.019291161 0.004567408 0.14312971 0 0 0
-0.019303139 0.01012593 0.14184301 0 0 0
-0.019279171 0.01558057 0.14016861 0 0 0
-0.0193471 0.02123097 0.1375632 0 0 0
-0.019331111 0.026637649 0.1344423 0 0 0
-0.01931514 0.032080289 0.1318009 0 0 0
-0.019311139 0.037518919 0.1287279 0 0 0
-0.01936708 0.04310938 0.1254032 0 0 0
-0.01931913 0.048476111 0.1221824 0 0 0
-0.019375071 0.05409855 0.1183981 0 0 0
-0.0193471 0.059493229 0.1147337 0 0 0
-0.019311139 0.064799987 0.1104939 0 0 0
-0.019383069 0.070506357 0.1057905 0 0 0
-0.019359089 0.075893059 0.1021102 0 0 0
-0.019379079 0.081495523 0.097706527 0 0 0
-0.01932312 0.086746342 0.09287928 0 0 0
-0.003322914 0.2512081 -0.080653504 0 0 0
-0.00016203181 0.25517619 -0.084469743 0 0 0
0.0001736358 0.25060469 -0.078727402 0 0 0
0.2483888 -0.1224633 -0.091011293 0 0 0
0.25159359 -0.1164212 -0.090751544 0 0 0
0.25238881 -0.1220636 -0.086971268 0 0 0
0.3083896 -0.1188948 0.077582382 0 0 0
0.3083936 -0.1243214 0.080575421 0 0 0
0.2872864 -0.0068333382 0.0046663182 0 0 0
0.03221003 0.26191351 -0.087163083 0 0 0
0.035690598 0.2613101 -0.085228987 0 0 0
0.2890766 -0.017906399 0.00069823518 0 0 0
0.28853321 -0.0123319 0.00069423817 0 0 0
-0.087168187 0.1623358 -0.01028693 0 0 0
-0.086496837 0.16238371 -0.0063228402 0 0 0
-0.14198209 0.2475677 -0.1062323 0 0 0
0.1650909 -0.099733658 0.1751062 0 0 0
0.1688832 -0.099625804 0.1735557 0 0 0
0.1657583 -0.094247103 0.17614511 0 0 0
0.29634941 -0.1242255 0.081134871 0 0 0
0.29633749 -0.1188868 0.077558413 0 0 0
-0.076562658 0.20531739 -0.0139673 0 0 0
-0.05599495 -0.2414299 0.1051552 0 0 0
