ply
format ascii 1.0
comment PCL generated
element vertex 1209
property float x
property float y
property float z
property uchar red
property uchar green
property uchar blue
element camera 0
property float view_px
property float view_py
property float view_pz
property float x_axisx
property float x_axisy
property float x_axisz
property float y_axisx
property float y_axisy
property float y_axisz
property float z_axisx
property float z_axisy
property float z_axisz
property float focal
property float scalex
property float scaley
property float centerx
property float centery
property int viewportx
property int viewporty
property float k1
property float k2
end_header
0.64966565 0.21546736 1.3768016 0 0 0
0.64546943 0.21901253 1.3679562 0 0 0
0.64042097 0.22315063 1.355117 0 0 0
0.61396337 0.24304117 1.3000017 0 0 0
0.61123657 0.24544027 1.2902693 0 0 0
0.60442078 0.24803521 1.2790834 0 0 0
0.59818983 0.25395361 1.2640227 0 0 0
-0.59867871 0.075924188 1.2968955 0 0 0
-0.4827756 0.14830993 1.0414615 0 0 0
-0.59313059 0.078264751 1.2874136 0 0 0
-0.47480762 0.14895186 1.0364242 0 0 0
-0.47286871 0.1511896 1.0281203 0 0 0
-0.69566631 0.01484306 1.518495 0 0 0
-0.48329258 0.14301772 1.0570204 0 0 0
-0.47726199 0.14495984 1.048449 0 0 0
-0.68742198 0.012563366 1.5218922 0 0 0
-0.68814296 0.0081994161 1.5333831 0 0 0
-0.67973065 0.012321427 1.5172793 0 0 0
-0.59855062 0.051488724 1.3360307 0 0 0
-0.57608336 0.074418142 1.2898033 0 0 0
-0.4763 0.13906865 1.0633941 0 0 0
-0.68636471 0.00273713 1.5454813 0 0 0
-0.58474815 0.049340025 1.3389455 0 0 0
-0.68802232 -0.18350062 1.5765324 0 0 0
-0.57574552 0.053092971 1.3284649 0 0 0
-0.47468689 0.12830535 1.0936409 0 0 0
-0.56869984 0.053397246 1.3207848 0 0 0
-0.55253536 0.062386274 1.2951189 0 0 0
-0.4703261 0.12101012 1.1129498 0 0 0
-0.46658075 0.12380291 1.1019053 0 0 0
-0.52646846 0.071085505 1.2742336 0 0 0
-0.5213545 0.078465693 1.2564831 0 0 0
-0.51553369 0.074259408 1.2650508 0 0 0
-0.51122272 0.077818058 1.2552869 0 0 0
-0.48782453 0.090498067 1.2091711 0 0 0
-0.47823471 0.092660822 1.1927909 0 0 0
-0.46943477 0.10205317 1.1631829 0 0 0
-0.46525133 0.10514348 1.1550329 0 0 0
-0.46105793 0.10859437 1.1422288 0 0 0
-0.4721649 0.094448924 1.1822531 0 0 0
-0.46980011 0.097517356 1.1736743 0 0 0
-0.64794755 -0.053506877 1.639228 0 0 0
-0.64013869 -0.053000003 1.6346424 0 0 0
-0.59924042 -0.18120125 1.5531201 0 0 0
-0.61929852 -0.053671516 1.6295476 0 0 0
-0.45776048 0.087789848 1.1974974 0 0 0
-0.60642225 -0.047362026 1.6072376 0 0 0
-0.44821891 0.087619148 1.1926547 0 0 0
-0.44483399 0.090532459 1.1800623 0 0 0
-0.48625863 0.036155354 1.3030072 0 0 0
-0.59807122 -0.052343976 1.6143653 0 0 0
-0.48764139 0.032281045 1.319526 0 0 0
-0.47824207 0.039608713 1.2909845 0 0 0
-0.47985172 0.035562728 1.3086135 0 0 0
-0.43204305 0.086979643 1.1860036 0 0 0
-0.4690671 0.032895096 1.3233759 0 0 0
-0.4628002 0.035730459 1.3070029 0 0 0
-0.45281181 0.039762009 1.2936575 0 0 0
-0.46004894 0.031773686 1.324316 0 0 0
-0.46229011 0.027809041 1.3428243 0 0 0
-0.44182578 0.040116236 1.2904185 0 0 0
-0.49051085 -0.41109353 1.4428409 0 0 0
-0.49096745 -0.40197027 1.4457387 0 0 0
-0.45876828 0.014696758 1.3804162 0 0 0
-0.45481086 0.020255527 1.3609029 0 0 0
-0.47913563 -0.34698999 1.4627606 0 0 0
-0.45420107 0.011562082 1.3887223 0 0 0
-0.44520527 0.019623961 1.3666167 0 0 0
-0.44358864 0.023787476 1.3527445 0 0 0
-0.47919339 -0.33508408 1.4671252 0 0 0
-0.47846347 -0.32275203 1.4714264 0 0 0
-0.54578495 -0.086559191 1.6669571 0 0 0
-0.5373503 -0.078559279 1.6537483 0 0 0
-0.4474307 0.015965646 1.3783865 0 0 0
-0.43650708 0.026992792 1.3406165 0 0 0
-0.47065833 -0.31058925 1.4731641 0 0 0
-0.42720899 0.023617052 1.3505491 0 0 0
-0.42579445 0.026973641 1.3421373 0 0 0
-0.42047995 0.03138525 1.3285818 0 0 0
-0.41019019 0.031680986 1.3273534 0 0 0
-0.40908179 0.02174159 1.348858 0 0 0
-0.407262 0.025442395 1.3393567 0 0 0
-0.4924182 -0.077275887 1.639976 0 0 0
-0.3069163 -0.067374587 1.2580007 0 0 0
-0.29632199 -0.068663873 1.2490017 0 0 0
-0.17266408 -0.28628337 1.0952779 0 0 0
-0.10749113 -0.32767981 1.056668 0 0 0
-0.071833126 0.088752337 1.0236586 0 0 0
-0.059116505 0.090056717 1.015818 0 0 0
-0.0018203058 0.018242611 1.1871874 0 0 0
-0.0035389406 0.022187142 1.1795914 0 0 0
0.0029929155 0.014291381 1.1992172 0 0 0
0.021319861 0.0091198282 1.2040045 0 0 0
0.049262173 -0.12831266 1.5613053 0 0 0
0.059067216 -0.12296633 1.5463889 0 0 0
0.084193312 -0.10669578 1.4935253 0 0 0
0.1076966 -0.10341703 1.4946629 0 0 0
0.12118078 -0.11312314 1.5351411 0 0 0
0.12254793 -0.10475379 1.5232356 0 0 0
0.12747882 -0.10706158 1.5395281 0 0 0
0.14151962 -0.065936759 1.5455538 0 0 0
0.1459713 0.1542529 1.3974521 0 0 0
0.16488571 0.13319951 1.4474695 0 0 0
0.15835433 0.1384445 1.4314748 0 0 0
0.16222803 0.14241648 1.4246854 0 0 0
0.17334957 0.13077712 1.4503088 0 0 0
0.17108908 0.13828301 1.4287944 0 0 0
0.18638326 -0.14776854 1.5703409 0 0 0
0.1850031 -0.12860759 1.5564071 0 0 0
0.17740491 0.13305075 1.4423577 0 0 0
0.20993046 -0.15277718 1.5671376 0 0 0
0.23096891 0.12787402 1.4317385 0 0 0
0.22592388 0.13413084 1.4152902 0 0 0
0.22636288 0.14136922 1.3990141 0 0 0
0.24186981 0.12901971 1.4250531 0 0 0
0.23869458 0.13507745 1.4095367 0 0 0
0.24994896 0.12045944 1.4452559 0 0 0
0.26433933 -0.14387856 1.5417409 0 0 0
0.26111877 0.10553815 1.4857165 0 0 0
0.25724542 0.11393804 1.4605352 0 0 0
0.27950844 -0.15412034 1.5487745 0 0 0
0.27810231 -0.14700709 1.5414336 0 0 0
0.27654797 -0.14010526 1.5362161 0 0 0
0.28744495 -0.14647958 1.5380218 0 0 0
0.28039095 0.12791334 1.4126899 0 0 0
0.29090586 0.12716912 1.4142416 0 0 0
0.359532 0.24222849 1.4833225 0 0 0
0.35370407 0.24738222 1.4631935 0 0 0
0.36248955 0.24299431 1.475152 0 0 0
0.37116206 0.23912387 1.4826221 0 0 0
0.36430162 0.24393475 1.4664395 0 0 0
0.36162576 0.24860555 1.4511403 0 0 0
0.37214631 0.24121366 1.4705139 0 0 0
0.38179243 0.23484698 1.49079 0 0 0
0.3906697 0.23639233 1.4763734 0 0 0
0.39520875 0.24279128 1.4304522 0 0 0
0.40207192 0.24140449 1.4371386 0 0 0
0.42203918 0.2513237 1.3783551 0 0 0
0.42622623 0.247692 1.3853714 0 0 0
0.43600857 0.24304223 1.3931991 0 0 0
0.41904852 0.26164526 1.3461405 0 0 0
0.42292145 0.26709035 1.3317811 0 0 0
0.43142596 0.2654506 1.32427 0 0 0
0.48531649 -0.17544764 1.5085666 0 0 0
0.48482397 0.23039062 1.4137989 0 0 0
0.48509774 0.23270638 1.3998837 0 0 0
0.49597165 0.22925678 1.415732 0 0 0
0.48615488 0.23699494 1.3871959 0 0 0
0.47861779 0.24934462 1.3477918 0 0 0
0.47292152 0.25575545 1.3319862 0 0 0
0.45894068 0.267784 1.3029426 0 0 0
0.51742649 -0.14395089 1.4759513 0 0 0
0.47421959 0.25790682 1.3235396 0 0 0
0.52485257 0.24185632 1.3425179 0 0 0
0.51812607 0.24755406 1.3230176 0 0 0
0.51160157 0.25084388 1.3136706 0 0 0
0.51574457 0.25552911 1.3051986 0 0 0
0.5127666 0.25782821 1.2954149 0 0 0
0.56661737 0.21630852 1.4262868 0 0 0
0.51591486 0.25876576 1.2829767 0 0 0
0.56774652 0.22350679 1.3863026 0 0 0
0.57741237 0.21988286 1.3996525 0 0 0
0.61103803 -0.1955777 1.49019 0 0 0
0.59501076 0.21807081 1.4007895 0 0 0
0.57539696 0.23044604 1.3585243 0 0 0
0.603082 0.21498764 1.4077002 0 0 0
0.66960943 0.16392735 1.4153628 0 0 0
0.67420983 0.16965403 1.4214966 0 0 0
0.62857419 0.23558217 1.3157725 0 0 0
0.66779697 -0.082698822 1.4072597 0 0 0
0.66475457 -0.075003922 1.4043376 0 0 0
0.66630155 -0.06218525 1.4020931 0 0 0
0.66140085 0.0067884121 1.39595 0 0 0
0.66019666 0.034048729 1.3951236 0 0 0
0.66190392 0.062102877 1.3960509 0 0 0
0.65961671 0.093805298 1.3957665 0 0 0
0.67398244 0.1388552 1.411388 0 0 0
0.67615193 0.15053573 1.4140815 0 0 0
0.67699009 0.17817782 1.4206289 0 0 0
0.6830824 0.18597689 1.4252228 0 0 0
0.67272365 0.206185 1.4097693 0 0 0
0.67142004 0.21053377 1.4008673 0 0 0
0.66457796 0.21362764 1.3854297 0 0 0
0.656946 0.21711829 1.371115 0 0 0
0.65139449 0.2203453 1.3590913 0 0 0
0.64588398 0.22312966 1.348408 0 0 0
0.63679218 0.23210792 1.3233846 0 0 0
0.62365687 0.23899467 1.3036164 0 0 0
0.66604328 0.015305489 1.3920492 0 0 0
0.66280723 0.044360634 1.3936368 0 0 0
0.66857666 0.054920428 1.3976651 0 0 0
0.66664255 0.070110962 1.3949566 0 0 0
0.6685974 0.080892101 1.3974158 0 0 0
0.67015469 0.10210541 1.3992665 0 0 0
0.67621863 0.11451524 1.4054437 0 0 0
0.67435682 0.12488008 1.4055793 0 0 0
0.67790192 0.16002057 1.4125218 0 0 0
0.68437356 0.16614543 1.4185132 0 0 0
0.68740618 0.19955181 1.4231471 0 0 0
0.67981356 0.20881628 1.4013717 0 0 0
0.67447501 0.21253677 1.3887483 0 0 0
0.64877278 0.22691536 1.335788 0 0 0
0.64464957 0.23014604 1.3272098 0 0 0
-0.68243569 -0.058057569 1.6652442 0 0 0
-0.62299728 -0.034935519 1.5876416 0 0 0
-0.60703111 -0.054161981 1.6264906 0 0 0
-0.49022159 0.028264059 1.3276448 0 0 0
-0.478102 0.032551929 1.3217435 0 0 0
-0.46769446 0.022276625 1.3526465 0 0 0
-0.46221641 0.017639933 1.3680587 0 0 0
-0.46944302 -0.29633608 1.4773332 0 0 0
-0.42941955 0.019095769 1.3638176 0 0 0
-0.41351259 0.018113356 1.3587294 0 0 0
-0.19896269 -0.31878674 1.0505891 0 0 0
-0.15665939 -0.32188857 1.039606 0 0 0
-0.10988595 -0.3284539 1.0437654 0 0 0
-0.088534698 -0.25424889 1.0923619 0 0 0
0.036775786 -0.017751623 1.2693211 0 0 0
0.062797122 -0.021239642 1.2801297 0 0 0
0.096654497 -0.10624778 1.4842696 0 0 0
0.1098455 -0.10871095 1.5105208 0 0 0
0.11778621 0.20821476 1.2680812 0 0 0
0.14187789 -0.054232884 1.5391526 0 0 0
0.15554072 0.14575556 1.4192909 0 0 0
0.28838798 0.12253506 1.4259049 0 0 0
0.52666038 0.21375373 1.4601442 0 0 0
0.67310691 -0.11842322 1.4192045 0 0 0
0.67190874 -0.097302191 1.4104079 0 0 0
0.66479897 -0.030550623 1.3971634 0 0 0
0.66525191 -0.020098552 1.3955683 0 0 0
-0.71627963 -0.42233849 1.5003929 0 0 0
-0.71128964 -0.432973 1.4945712 0 0 0
-0.70206571 -0.43375266 1.4911938 0 0 0
-0.70510906 -0.42261377 1.498437 0 0 0
-0.68815261 -0.435716 1.4873319 0 0 0
-0.69244188 -0.42670768 1.4923207 0 0 0
-0.68718034 -0.41767776 1.4944036 0 0 0
-0.67924798 -0.43377194 1.4866742 0 0 0
-0.67982095 -0.42215979 1.4915273 0 0 0
-0.67100263 -0.43552777 1.4831448 0 0 0
-0.67359042 -0.42684683 1.4872158 0 0 0
-0.66907936 -0.41757518 1.4897926 0 0 0
-0.57023144 0.085372731 1.253543 0 0 0
-0.66204292 -0.43638933 1.4809555 0 0 0
-0.66009587 -0.42143425 1.4863182 0 0 0
-0.65308177 -0.43567955 1.4796054 0 0 0
-0.65400338 -0.42731872 1.48264 0 0 0
-0.64814788 -0.42001706 1.483752 0 0 0
-0.58360499 0.062986664 1.3163135 0 0 0
-0.64325982 -0.44646984 1.472096 0 0 0
-0.64081383 -0.43870667 1.4751531 0 0 0
-0.64184803 -0.42760646 1.4801028 0 0 0
-0.63004982 -0.4445138 1.4687322 0 0 0
-0.62928528 -0.43621331 1.4743981 0 0 0
-0.63232392 -0.42258888 1.4784733 0 0 0
-0.67930585 -0.17756313 1.5746166 0 0 0
-0.51031393 0.099117629 1.1873749 0 0 0
-0.62163293 -0.43927068 1.4701413 0 0 0
-0.62293786 -0.42995965 1.4744964 0 0 0
-0.66618234 -0.17508794 1.5710331 0 0 0
-0.57039839 0.04600656 1.3317 0 0 0
-0.5577417 0.046399813 1.3197017 0 0 0
-0.46571055 0.12656964 1.0930983 0 0 0
-0.61272001 -0.4450857 1.4647173 0 0 0
-0.61051929 -0.43319345 1.4690723 0 0 0
-0.60412067 -0.44353542 1.4631735 0 0 0
-0.59983253 -0.43433926 1.4670668 0 0 0
-0.60076571 -0.42509568 1.4697632 0 0 0
-0.59213418 -0.44363052 1.4600142 0 0 0
-0.589522 -0.43484122 1.4635402 0 0 0
-0.59103286 -0.42676023 1.4685383 0 0 0
-0.62819368 -0.18122162 1.5615398 0 0 0
-0.58179432 -0.443032 1.458057 0 0 0
-0.58089679 -0.43323115 1.4617212 0 0 0
-0.47671506 0.089131221 1.2056847 0 0 0
-0.45085019 0.11014277 1.1331946 0 0 0
-0.56756568 -0.44442025 1.4537723 0 0 0
-0.57120597 -0.43461314 1.4585078 0 0 0
-0.45569596 0.10416494 1.1512458 0 0 0
-0.56437409 -0.45230195 1.4479722 0 0 0
-0.5606873 -0.43691283 1.4544894 0 0 0
-0.63074124 -0.056403868 1.6471335 0 0 0
-0.45652142 0.091365881 1.1848539 0 0 0
-0.55028498 -0.43695304 1.4528502 0 0 0
-0.55405104 -0.42953697 1.4562869 0 0 0
-0.62985873 -0.062447462 1.6561865 0 0 0
-0.49982268 0.033169847 1.3118311 0 0 0
-0.61853927 -0.057443406 1.644275 0 0 0
-0.60027957 -0.040811315 1.5896574 0 0 0
-0.54107744 -0.42868629 1.4530733 0 0 0
-0.53553504 -0.43568829 1.4491096 0 0 0
-0.60222208 -0.056691177 1.633921 0 0 0
-0.52130085 -0.43697029 1.4452673 0 0 0
-0.50621545 -0.4436889 1.4370885 0 0 0
-0.50675899 -0.43068337 1.4425555 0 0 0
-0.44370946 0.043150492 1.2823235 0 0 0
-0.49716464 -0.42046529 1.4416815 0 0 0
-0.44820029 0.03304448 1.3193202 0 0 0
-0.43207026 0.03318008 1.322275 0 0 0
-0.49985522 -0.1866854 1.5255266 0 0 0
-0.48491275 -0.022794882 1.4875185 0 0 0
-0.4274337 0.035195503 1.3130518 0 0 0
-0.49154991 -0.18392165 1.5236014 0 0 0
-0.43455493 0.016557576 1.3747303 0 0 0
-0.50217921 -0.066715717 1.6255823 0 0 0
-0.51482654 -0.43590888 1.7386265 0 0 0
-0.40554959 0.016633207 1.3547045 0 0 0
-0.51187223 -0.42505744 1.7435042 0 0 0
-0.47497541 -0.068684705 1.6343882 0 0 0
-0.45652735 -0.073973566 1.649554 0 0 0
-0.2924619 -0.32121396 1.078052 0 0 0
-0.29447287 -0.31296441 1.0812742 0 0 0
-0.28480908 -0.31220654 1.0768714 0 0 0
-0.28835028 -0.3054502 1.0809419 0 0 0
-0.28002089 -0.32094255 1.0734593 0 0 0
-0.27861112 -0.302439 1.0785559 0 0 0
-0.27566415 -0.31298453 1.0752931 0 0 0
-0.26968655 -0.32192755 1.0701221 0 0 0
-0.27059829 -0.30349481 1.0741463 0 0 0
-0.26623914 -0.31187195 1.0718011 0 0 0
-0.26115963 -0.3242712 1.0670205 0 0 0
-0.2622233 -0.30174145 1.0721275 0 0 0
-0.25789523 -0.31135845 1.0696594 0 0 0
-0.24885437 -0.32884449 1.0623393 0 0 0
-0.24845092 -0.32016 1.0650594 0 0 0
-0.25288099 -0.29082447 1.0803858 0 0 0
-0.24780384 -0.31252348 1.0691438 0 0 0
-0.24083559 -0.33207881 1.0579388 0 0 0
-0.24555463 -0.28733158 1.0873797 0 0 0
-0.23891477 -0.32239991 1.0595863 0 0 0
-0.24441665 -0.2990599 1.0886302 0 0 0
-0.23244771 -0.33554482 1.0562277 0 0 0
-0.24057849 -0.30848393 1.0889211 0 0 0
-0.24035366 -0.28444847 1.0937083 0 0 0
-0.22948633 -0.32532191 1.0567707 0 0 0
-0.23622227 -0.29782915 1.0998317 0 0 0
-0.22394969 -0.33247358 1.0541452 0 0 0
-0.22516061 -0.31848657 1.0619136 0 0 0
-0.22842 -0.31161278 1.0933206 0 0 0
-0.22818626 -0.30650622 1.1014253 0 0 0
-0.23311186 -0.28626785 1.1007044 0 0 0
-0.22130977 0.080268085 1.0783415 0 0 0
-0.21717204 -0.33876884 1.0511535 0 0 0
-0.21736167 -0.3263146 1.0534099 0 0 0
-0.2137503 -0.31872138 1.0585335 0 0 0
-0.22098032 -0.30269402 1.1045018 0 0 0
-0.22224712 -0.29326233 1.1074106 0 0 0
-0.20867865 -0.33834842 1.048148 0 0 0
-0.2078903 -0.32881576 1.0503175 0 0 0
-0.2165534 -0.31261975 1.0926824 0 0 0
-0.19964638 -0.33750921 1.0461884 0 0 0
-0.19941886 -0.32878137 1.0478742 0 0 0
-0.21197754 -0.30208242 1.101579 0 0 0
-0.21170525 -0.28908437 1.1056564 0 0 0
-0.20496099 -0.3163147 1.0853349 0 0 0
-0.20542631 -0.30927649 1.0923333 0 0 0
-0.20596707 -0.29760781 1.0973142 0 0 0
-0.19159196 -0.33764997 1.0432208 0 0 0
-0.19169886 -0.32502729 1.047995 0 0 0
-0.19518302 -0.31136301 1.0895115 0 0 0
-0.19931899 -0.29208034 1.0983721 0 0 0
-0.1827922 -0.34106839 1.0411986 0 0 0
-0.18440931 -0.33118472 1.0441418 0 0 0
-0.17793602 -0.32546103 1.0435643 0 0 0
-0.17482914 -0.33412284 1.0416324 0 0 0
-0.1873433 -0.29638845 1.0953194 0 0 0
-0.18609749 -0.28684315 1.0961353 0 0 0
-0.17196488 -0.34229434 1.0378865 0 0 0
-0.18051477 -0.2988275 1.0906494 0 0 0
-0.16637383 -0.32655904 1.041773 0 0 0
-0.16308574 -0.34178337 1.0356215 0 0 0
-0.17395818 -0.30825713 1.0839415 0 0 0
-0.15990436 -0.33265662 1.037322 0 0 0
-0.16924733 -0.2958318 1.0906278 0 0 0
-0.15062664 -0.34193385 1.0328603 0 0 0
-0.16101937 -0.30522147 1.0826557 0 0 0
-0.14774159 -0.33326939 1.0337927 0 0 0
-0.15442213 -0.31337887 1.0783228 0 0 0
-0.14434941 -0.3253819 1.0351659 0 0 0
-0.13899232 -0.34230626 1.030545 0 0 0
-0.14746413 -0.30276653 1.0828631 0 0 0
-0.13593954 -0.33176088 1.031471 0 0 0
-0.144536 -0.31785801 1.0734525 0 0 0
-0.14463206 -0.29367161 1.0823574 0 0 0
-0.13119285 -0.34580669 1.0295372 0 0 0
-0.13838163 -0.3204256 1.0664064 0 0 0
-0.12726142 -0.33545476 1.029242 0 0 0
-0.13651015 -0.28885552 1.0838542 0 0 0
-0.12978034 -0.31768337 1.0698543 0 0 0
-0.12033266 -0.34112242 1.0282751 0 0 0
-0.12877578 -0.30260208 1.0741065 0 0 0
-0.11752795 -0.33292413 1.0317268 0 0 0
-0.10815956 -0.34764537 1.0349714 0 0 0
-0.11060876 -0.33908018 1.0345097 0 0 0
-0.10373649 -0.33961007 1.0400906 0 0 0
-0.10093063 -0.3337225 1.0475751 0 0 0
-0.097296119 -0.33185786 1.0633268 0 0 0
-0.092846774 -0.28122881 1.0832334 0 0 0
-0.054525979 -0.085418507 1.1614958 0 0 0
0.066176906 -0.095309958 1.4699569 0 0 0
0.13573927 0.17211764 1.8585988 0 0 0
0.1413949 0.22613537 1.8726195 0 0 0
0.15032695 0.23744321 1.8713318 0 0 0
0.15045886 0.15199171 1.4048982 0 0 0
0.25460517 0.12455995 1.4323651 0 0 0
0.66040927 -0.012997129 1.3946885 0 0 0
0.68797636 0.17622207 1.4190723 0 0 0
0.69313246 0.18750648 1.4255805 0 0 0
0.66996813 -0.050072424 1.3978928 0 0 0
0.66546011 -0.00056159869 1.3903813 0 0 0
0.67164522 0.025382482 1.3936687 0 0 0
0.67309225 0.089478433 1.3961794 0 0 0
0.68438488 0.12168495 1.4053177 0 0 0
0.68099761 0.1315141 1.4034456 0 0 0
0.68723828 0.14282814 1.4106519 0 0 0
0.68472546 0.15339381 1.4095123 0 0 0
0.69062233 0.15952882 1.4146721 0 0 0
0.68043941 -0.13267086 1.4245632 0 0 0
0.67953235 -0.1116652 1.4158092 0 0 0
0.676871 -0.08682809 1.404948 0 0 0
0.67452139 -0.075912073 1.4021852 0 0 0
0.67378134 -0.037583251 1.3958269 0 0 0
0.67314088 -0.026968634 1.3933858 0 0 0
0.67059523 -0.016473845 1.3899639 0 0 0
0.67197621 -0.0064203097 1.3886148 0 0 0
0.67389637 0.004450867 1.3912112 0 0 0
0.67870951 0.030945683 1.3934711 0 0 0
0.67909163 0.041228443 1.3936956 0 0 0
0.67628497 0.051481199 1.3910496 0 0 0
0.67465365 0.061837569 1.3898106 0 0 0
0.67864984 0.07274843 1.3927499 0 0 0
0.68161094 0.089186899 1.3965905 0 0 0
0.68237913 0.099647842 1.3980571 0 0 0
0.68590242 0.11008068 1.4014173 0 0 0
0.69775432 0.16496618 1.4165217 0 0 0
0.69790685 0.17569619 1.4183754 0 0 0
0.67874688 0.017196564 1.3895763 0 0 0
0.68772328 0.072527051 1.3955063 0 0 0
0.68300623 0.081819832 1.3922967 0 0 0
0.69320577 0.096144117 1.3984236 0 0 0
0.69395846 0.11489391 1.4002283 0 0 0
0.69531697 0.12572539 1.4022887 0 0 0
0.6949051 0.13634516 1.4034591 0 0 0
0.700302 0.1425643 1.4089488 0 0 0
0.70268828 0.15347172 1.4117852 0 0 0
0.7062884 0.16997832 1.4158576 0 0 0
0.7042498 0.18162602 1.415917 0 0 0
-0.62028313 0.073513113 1.308666 0 0 0
-0.62059718 0.046531875 1.333782 0 0 0
-0.71347785 -0.44345444 1.4889512 0 0 0
-0.7026149 -0.44399861 1.4863641 0 0 0
-0.61131895 0.047024406 1.3380126 0 0 0
-0.58237803 0.070512518 1.3034168 0 0 0
-0.68680191 -0.44503245 1.4814625 0 0 0
-0.67268747 -0.44811708 1.4793284 0 0 0
-0.59190011 0.045674067 1.3455571 0 0 0
-0.50838012 0.10130288 1.1792188 0 0 0
-0.65861446 -0.44789836 1.4752811 0 0 0
-0.57589084 0.043561231 1.3412616 0 0 0
-0.54928672 0.066556901 1.2879002 0 0 0
-0.65060431 -0.45134118 1.4702326 0 0 0
-0.63673902 -0.45162597 1.4660674 0 0 0
-0.55378681 0.036373381 1.3294091 0 0 0
-0.49880922 0.091453925 1.2133189 0 0 0
-0.49242797 0.094332896 1.1994843 0 0 0
-0.54091096 0.035560623 1.3197891 0 0 0
-0.6809321 -0.054235049 1.6542248 0 0 0
-0.62155199 -0.45163301 1.4623463 0 0 0
-0.67658079 -0.062643677 1.6723875 0 0 0
-0.50896937 0.070168406 1.2706149 0 0 0
-0.50442034 0.073600598 1.2615321 0 0 0
-0.50070357 0.07657674 1.2540181 0 0 0
-0.60711318 -0.45408234 1.4570941 0 0 0
-0.66984183 -0.071565345 1.6880361 0 0 0
-0.66410011 -0.064804211 1.6751726 0 0 0
-0.48808095 0.075526074 1.2495407 0 0 0
-0.47518879 0.08591152 1.2163153 0 0 0
-0.46902373 0.088632293 1.201919 0 0 0
-0.46304929 0.089944713 1.1908218 0 0 0
-0.59698075 -0.45099649 1.4577115 0 0 0
-0.63951361 -0.049124237 1.6258478 0 0 0
-0.66502839 -0.077605926 1.6968093 0 0 0
-0.65541923 -0.071488284 1.6847599 0 0 0
-0.6508081 -0.066589177 1.6727896 0 0 0
-0.51650459 0.02523567 1.3380582 0 0 0
-0.58031487 -0.45752764 1.4521818 0 0 0
-0.607485 -0.04382477 1.597751 0 0 0
-0.59723985 -0.036926653 1.5809923 0 0 0
-0.49419942 0.022770835 1.3381972 0 0 0
-0.58650851 -0.045332756 1.5888445 0 0 0
-0.57980877 -0.039893158 1.5736052 0 0 0
-0.49541861 0.019157831 1.3516082 0 0 0
-0.58447415 -0.052807171 1.6102288 0 0 0
-0.57426172 -0.045529589 1.5783995 0 0 0
-0.57069445 -0.040854771 1.5654963 0 0 0
-0.48374638 0.027405985 1.3341583 0 0 0
-0.42797169 0.084179804 1.1932515 0 0 0
-0.48315012 0.02285135 1.3451205 0 0 0
-0.48338234 0.017346084 1.3617845 0 0 0
-0.54702938 -0.045216259 1.533295 0 0 0
-0.47430262 0.026607299 1.3399596 0 0 0
-0.53708041 -0.041127857 1.5260769 0 0 0
-0.47567412 0.015231706 1.3729469 0 0 0
-0.47316208 0.018566107 1.3614368 0 0 0
-0.45464212 0.035017025 1.3123598 0 0 0
-0.56317681 -0.057193473 1.6295762 0 0 0
-0.50777137 -0.031178083 1.5027853 0 0 0
-0.46159625 0.0091389716 1.3935264 0 0 0
-0.43215144 0.029382695 1.3335037 0 0 0
-0.44182467 0.010562938 1.3910493 0 0 0
-0.53876638 -0.090986624 1.669812 0 0 0
-0.43694219 0.0062471861 1.3969827 0 0 0
-0.42974347 0.010521726 1.3852839 0 0 0
-0.41677368 0.026750747 1.3409196 0 0 0
-0.40696886 0.038220286 1.302892 0 0 0
-0.4271453 0.0056324876 1.3919374 0 0 0
-0.41950077 0.014039132 1.3709792 0 0 0
-0.41776603 0.023209661 1.3490211 0 0 0
-0.51324069 -0.090459749 1.6619204 0 0 0
-0.41842523 0.0098211337 1.3786099 0 0 0
-0.5073784 -0.086573713 1.6537524 0 0 0
-0.50066924 -0.080254547 1.643811 0 0 0
-0.49409324 -0.074252144 1.6273088 0 0 0
-0.41916203 0.0053273807 1.3871505 0 0 0
-0.41070914 0.013084298 1.3689069 0 0 0
-0.41865259 0.00045949407 1.3962153 0 0 0
-0.49049214 -0.089738786 1.6612036 0 0 0
-0.484162 -0.080874637 1.6467625 0 0 0
-0.48097721 -0.08669012 1.658471 0 0 0
-0.47634891 -0.080310233 1.650488 0 0 0
-0.46585375 -0.075240992 1.6451494 0 0 0
-0.27354953 0.12942591 0.98890436 0 0 0
-0.47016084 -0.088463239 1.6639842 0 0 0
-0.46591651 -0.079960026 1.652477 0 0 0
-0.34579101 0.025489161 1.2410387 0 0 0
-0.45996711 -0.087908685 1.6703471 0 0 0
-0.4558624 -0.084093414 1.6631573 0 0 0
-0.33418611 0.017100597 1.2354921 0 0 0
-0.44753468 -0.081492826 1.6589705 0 0 0
-0.44714555 -0.076616108 1.6492943 0 0 0
-0.2939375 0.092962496 1.1057563 0 0 0
-0.28493342 0.093497679 1.0889946 0 0 0
-0.28428859 0.096684739 1.0739868 0 0 0
-0.44313204 -0.085252233 1.6679958 0 0 0
-0.27534908 0.095669769 1.059513 0 0 0
-0.27145383 0.084921621 1.0608623 0 0 0
-0.2657966 0.077597737 1.0602157 0 0 0
-0.28852132 -0.32917318 1.0724459 0 0 0
-0.25822636 0.072280422 1.0603844 0 0 0
-0.27979854 -0.33171162 1.0701536 0 0 0
-0.25436223 0.06507419 1.069528 0 0 0
-0.27048412 -0.33232537 1.0696286 0 0 0
-0.30360311 -0.075322792 1.2579463 0 0 0
-0.24805231 0.069044188 1.0635272 0 0 0
-0.2455872 0.063462913 1.0719239 0 0 0
-0.29199439 -0.076622814 1.2505887 0 0 0
-0.2399105 0.071497239 1.0621527 0 0 0
-0.25746548 -0.33450493 1.0620713 0 0 0
-0.23823814 0.061465368 1.0781742 0 0 0
-0.23375399 0.067490458 1.0707717 0 0 0
-0.22814459 0.076292858 1.0703604 0 0 0
-0.22728264 0.064061441 1.0800402 0 0 0
-0.21962513 0.068614632 1.0841702 0 0 0
-0.17685211 0.20356904 0.89697713 0 0 0
-0.21527822 0.077257797 1.0888727 0 0 0
-0.21271446 0.069035515 1.0942225 0 0 0
-0.20545706 0.074302666 1.1041983 0 0 0
-0.20602058 -0.31685132 1.0628529 0 0 0
-0.18203111 0.042227667 1.1972467 0 0 0
-0.17332497 -0.32070568 1.0506961 0 0 0
-0.16854872 0.041466337 1.1979196 0 0 0
-0.1350707 0.041900456 1.1811285 0 0 0
-0.13716714 -0.32268041 1.0562075 0 0 0
-0.12733237 -0.32319787 1.0440607 0 0 0
-0.09174864 -0.018737577 1.0285974 0 0 0
-0.085964151 -0.024858857 1.0298845 0 0 0
-0.078649655 -0.027452977 1.0218948 0 0 0
-0.052764613 0.18615372 0.85834002 0 0 0
-0.074077681 -0.02004347 1.0159525 0 0 0
-0.065900169 0.08381965 1.0322796 0 0 0
-0.065559253 -0.027765421 1.0196315 0 0 0
-0.05913629 0.086897232 1.0239658 0 0 0
-0.043832175 0.18411216 0.8525812 0 0 0
-0.057121038 0.083332136 1.032979 0 0 0
-0.048497226 0.083317004 1.0328978 0 0 0
-0.048878431 0.085623398 1.0223308 0 0 0
-0.046312071 0.08874961 1.014294 0 0 0
-0.04329839 0.090398081 1.0041385 0 0 0
-0.029037403 0.17726722 0.84647691 0 0 0
-0.039443221 0.085520476 1.020939 0 0 0
-0.036901813 0.078392014 1.0384016 0 0 0
-0.036245301 0.081980355 1.0306808 0 0 0
-0.029647883 0.080665193 1.0239873 0 0 0
0.030005597 -0.018440487 1.2445171 0 0 0
0.031249454 0.042005651 1.1010572 0 0 0
0.06012566 -0.093422279 1.4634528 0 0 0
0.067772426 -0.10592013 1.4953636 0 0 0
0.11698189 0.061073083 1.8309076 0 0 0
0.11802968 0.076458342 1.828077 0 0 0
0.11977532 0.095224239 1.8375231 0 0 0
0.12060775 0.10993779 1.841628 0 0 0
0.12246657 0.12384079 1.8457352 0 0 0
0.1214826 0.06081935 1.822175 0 0 0
0.12635082 0.1022068 1.8389186 0 0 0
0.1272386 0.11638869 1.8433306 0 0 0
0.12899305 0.16387977 1.8563025 0 0 0
0.13103923 0.17929739 1.8628248 0 0 0
0.13171466 0.18752259 1.8668083 0 0 0
0.13228643 0.20097117 1.8744178 0 0 0
0.13633023 0.21326382 1.8743514 0 0 0
0.15169795 0.13773093 1.4426025 0 0 0
0.16002935 0.1184569 1.4907581 0 0 0
0.15951698 0.12238622 1.4782156 0 0 0
0.15822315 0.12661336 1.4680058 0 0 0
0.15856162 0.1302035 1.4578723 0 0 0
0.15843406 -0.15307532 1.5918247 0 0 0
0.16747816 0.12589233 1.4649826 0 0 0
0.16726735 0.12962055 1.4563189 0 0 0
0.16568875 -0.16139485 1.5975112 0 0 0
0.16712421 -0.15400834 1.5870957 0 0 0
0.17049614 0.11750612 1.4882284 0 0 0
0.25188607 -0.16541129 1.5737199 0 0 0
0.26667151 -0.15123446 1.5483044 0 0 0
0.30860791 -0.169989 1.5583555 0 0 0
0.32632342 -0.17583029 1.5597761 0 0 0
0.3220281 -0.16644619 1.5463209 0 0 0
0.38281322 0.24007425 1.463846 0 0 0
0.40652841 0.23004255 1.4831311 0 0 0
0.40343601 0.23376046 1.4689634 0 0 0
0.40518424 0.23549145 1.4536176 0 0 0
0.47819525 -0.17699283 1.5163593 0 0 0
0.56576401 -0.19744094 1.5114962 0 0 0
0.58287001 -0.20517243 1.5123001 0 0 0
0.57772446 -0.19446565 1.5039564 0 0 0
0.5537883 -0.61421752 1.4891137 0 0 0
0.59184468 -0.20564659 1.5107683 0 0 0
0.58848464 -0.20035541 1.5025423 0 0 0
0.56868434 -0.61346877 1.4874325 0 0 0
0.58063257 -0.61328709 1.4859731 0 0 0
0.59894973 -0.61834663 1.4800386 0 0 0
0.61327112 -0.61801702 1.4794753 0 0 0
0.62206507 -0.61744267 1.4776031 0 0 0
0.63091022 -0.61732519 1.4776118 0 0 0
0.63921624 -0.62234837 1.4735757 0 0 0
0.63862813 -0.61310685 1.4752028 0 0 0
0.64935714 -0.62227225 1.4709896 0 0 0
0.65000409 -0.61399496 1.4738417 0 0 0
0.68479371 -0.2051208 1.4805251 0 0 0
0.66065001 -0.6187287 1.4716444 0 0 0
0.69197613 -0.18904263 1.4645066 0 0 0
0.6951955 0.20400287 1.4085805 0 0 0
0.66211826 0.22459973 1.33805 0 0 0
0.65622991 0.2308246 1.3227551 0 0 0
0.70174158 -0.20559707 1.47809 0 0 0
0.6996364 -0.19479378 1.4684939 0 0 0
0.67676926 -0.05849696 1.3992581 0 0 0
0.68645811 0.21232179 1.3776321 0 0 0
0.6799283 0.21534713 1.3630435 0 0 0
0.67265248 0.21921775 1.3486512 0 0 0
0.67131031 -0.61757135 1.470032 0 0 0
0.67127645 -0.60810244 1.4707682 0 0 0
0.72759181 -0.36124754 1.5471801 0 0 0
0.72981375 -0.34830326 1.550252 0 0 0
0.73278046 -0.34138328 1.5560124 0 0 0
0.73787677 -0.31303573 1.5603518 0 0 0
0.74294299 -0.3012726 1.565923 0 0 0
0.74197584 -0.28991935 1.5665739 0 0 0
0.74454206 -0.27942601 1.5711643 0 0 0
0.74347019 -0.2688579 1.5720241 0 0 0
0.68793529 -0.15814465 1.4365025 0 0 0
0.68483257 -0.12341097 1.4178637 0 0 0
0.68493277 -0.10605073 1.4111017 0 0 0
0.68348455 -0.094920933 1.4071261 0 0 0
0.67980713 -0.068744056 1.399014 0 0 0
0.67812783 -0.049433671 1.3938607 0 0 0
0.67901576 -0.011983645 1.3901172 0 0 0
0.69592327 0.20841944 1.3855815 0 0 0
0.7186808 -0.42917734 1.5252625 0 0 0
0.72010797 -0.41947946 1.5248891 0 0 0
0.72350025 -0.40151775 1.5325924 0 0 0
0.72614479 -0.39382944 1.5375794 0 0 0
0.73995936 -0.32886925 1.5548614 0 0 0
0.7500813 -0.28585926 1.5697558 0 0 0
0.75252008 -0.27441853 1.5737607 0 0 0
0.75450248 -0.26602867 1.5770471 0 0 0
0.71485353 -0.21326578 1.4837471 0 0 0
0.70931441 -0.20585623 1.4738793 0 0 0
0.70190018 -0.17330489 1.4468416 0 0 0
0.69186455 -0.12939483 1.4178631 0 0 0
0.69034803 -0.11713844 1.4142562 0 0 0
0.68575037 -0.084578313 1.4019675 0 0 0
0.68490618 -0.037995312 1.393645 0 0 0
0.68265963 -0.027367294 1.3895173 0 0 0
0.68369395 -0.00087330001 1.3888519 0 0 0
0.68284649 0.0094501833 1.3878655 0 0 0
0.69020337 0.019427031 1.3896974 0 0 0
0.69017541 0.029904559 1.3894161 0 0 0
0.6907028 0.040063895 1.3901541 0 0 0
0.69362456 0.051105298 1.3925718 0 0 0
0.69228655 0.061275903 1.3914639 0 0 0
0.69473481 0.077404261 1.3934031 0 0 0
0.69796926 0.088246696 1.3960799 0 0 0
0.69998467 0.10421216 1.3980554 0 0 0
0.70454407 0.13223617 1.404693 0 0 0
0.70889986 0.15980873 1.4114193 0 0 0
0.71357507 0.17672814 1.4188633 0 0 0
0.68200177 -0.61323208 1.4695767 0 0 0
0.70973402 -0.48695207 1.5039995 0 0 0
0.71303713 -0.47765377 1.5075985 0 0 0
0.7155053 -0.4621532 1.513101 0 0 0
0.71875602 -0.45347968 1.5159546 0 0 0
0.71956426 -0.44433931 1.5192963 0 0 0
0.7281003 -0.4096702 1.5286455 0 0 0
0.73485583 -0.38708013 1.5362111 0 0 0
0.73568887 -0.3769092 1.539991 0 0 0
0.73525792 -0.36783662 1.5447776 0 0 0
0.73876709 -0.35759652 1.5454335 0 0 0
0.74071133 -0.34437406 1.5483741 0 0 0
0.74759823 -0.31748465 1.556188 0 0 0
0.75190985 -0.30659255 1.5626316 0 0 0
0.75302595 -0.29537758 1.5645406 0 0 0
0.76388276 -0.26799068 1.5790561 0 0 0
0.715895 -0.20152828 1.4695716 0 0 0
0.70497578 -0.16713598 1.4398588 0 0 0
0.69381797 -0.10678335 1.4087441 0 0 0
0.69210917 -0.095986657 1.4042759 0 0 0
0.68915433 -0.076997437 1.3977157 0 0 0
0.68790317 -0.064202912 1.3944728 0 0 0
0.68939382 -0.054856487 1.3937768 0 0 0
0.68389654 -0.018737471 1.3858323 0 0 0
0.70484424 0.1156361 1.3975869 0 0 0
0.70231521 0.1246184 1.3969455 0 0 0
0.70889688 0.14111221 1.4043294 0 0 0
0.71560782 0.16482572 1.4138079 0 0 0
0.71693736 0.18688025 1.4187804 0 0 0
0.74922681 -0.33451805 1.5517904 0 0 0
0.75323975 -0.32554656 1.5565971 0 0 0
0.75933182 -0.28554296 1.5671313 0 0 0
0.76490092 -0.27487275 1.5729083 0 0 0
0.76238841 -0.26451051 1.5713365 0 0 0
0.71623605 -0.18885992 1.4555727 0 0 0
0.71491688 -0.18077576 1.4475394 0 0 0
0.70207697 -0.13533945 1.4187852 0 0 0
0.70017213 -0.12376861 1.4146566 0 0 0
0.69517404 -0.08532548 1.4001164 0 0 0
0.69208723 -0.045601662 1.3886659 0 0 0
0.69393373 -0.03352968 1.3883058 0 0 0
0.69266629 -0.022571586 1.3866343 0 0 0
0.69449234 -0.012597697 1.38647 0 0 0
0.69057059 -0.0015712603 1.3823845 0 0 0
0.68825918 0.0081075607 1.3810047 0 0 0
0.69369763 0.047976423 1.3831533 0 0 0
0.70039982 0.065744117 1.3873361 0 0 0
0.70316875 0.076299861 1.3900988 0 0 0
0.69985229 0.091939971 1.3879955 0 0 0
0.71191657 0.12424273 1.3995105 0 0 0
0.71689594 0.15156528 1.4072961 0 0 0
0.72301549 0.17623942 1.4174043 0 0 0
0.72540879 0.1928509 1.4207771 0 0 0
0.7199924 0.19982964 1.4081289 0 0 0
0.70551825 0.20907986 1.3718243 0 0 0
0.64544559 0.25348738 1.2467965 0 0 0
-0.6335966 0.044457182 1.3334892 0 0 0
-0.67032814 0.027382949 1.4671245 0 0 0
-0.42749065 0.21793219 0.96873778 0 0 0
-0.65841502 0.03091423 1.4557854 0 0 0
-0.59957474 0.057391498 1.3265439 0 0 0
-0.47981414 0.13477422 1.0759813 0 0 0
-0.51420295 0.09974692 1.1657286 0 0 0
-0.64948785 0.026787762 1.459885 0 0 0
-0.40273985 0.21690746 0.96082145 0 0 0
-0.3916381 0.21057944 0.95457304 0 0 0
-0.5399754 0.027372776 1.3367699 0 0 0
-0.37033874 0.21346828 0.95609432 0 0 0
-0.49157149 0.084005952 1.2306572 0 0 0
-0.67806768 -0.067290939 1.6876106 0 0 0
-0.6150859 -0.42594641 1.4728664 0 0 0
-0.3552891 0.21174909 0.95157534 0 0 0
-0.6751616 -0.078878775 1.7037973 0 0 0
-0.49068791 0.014967754 1.3675826 0 0 0
-0.47105896 0.013446725 1.3831162 0 0 0
-0.47058868 0.0078514032 1.397987 0 0 0
-0.52935046 -0.04920435 1.5826284 0 0 0
-0.29488087 0.2042491 0.9280166 0 0 0
-0.54382253 -0.070800819 1.6394351 0 0 0
-0.52926874 -0.075791568 1.6496471 0 0 0
-0.28425628 0.20388399 0.92553794 0 0 0
-0.51386595 -0.073439181 1.6357864 0 0 0
-0.51426625 -0.069129013 1.6255254 0 0 0
-0.2740981 0.20259964 0.92105657 0 0 0
-0.52532279 -0.08789131 1.6643798 0 0 0
-0.51905006 -0.081250541 1.6518855 0 0 0
-0.4998751 -0.076033995 1.6355276 0 0 0
-0.26511413 0.20432538 0.92036325 0 0 0
-0.40875778 0.0044959569 1.3815413 0 0 0
-0.49078482 -0.084332205 1.6526599 0 0 0
-0.2512683 0.19837734 0.90869325 0 0 0
-0.25583744 0.20318706 0.91886842 0 0 0
-0.47838178 -0.091727823 1.6653616 0 0 0
-0.33210522 -0.0027839292 1.2496516 0 0 0
-0.21975726 0.19427952 0.89941293 0 0 0
-0.30964741 -0.057486713 1.2551013 0 0 0
-0.19502981 0.19800478 0.89615893 0 0 0
-0.18681493 0.19725457 0.89319837 0 0 0
-0.17802556 0.195649 0.89006764 0 0 0
-0.16793634 0.19459389 0.88632226 0 0 0
-0.20936081 0.065809175 1.1018593 0 0 0
-0.13646527 0.19424847 0.88301241 0 0 0
-0.13334857 0.18880026 0.8768363 0 0 0
-0.19240734 -0.30675948 1.0966769 0 0 0
-0.18496643 -0.31598735 1.0827855 0 0 0
-0.1035184 0.19028233 0.8715027 0 0 0
-0.1613171 -0.29633561 1.0869919 0 0 0
-0.088470772 0.18758436 0.86306834 0 0 0
-0.1398741 -0.31008086 1.075634 0 0 0
-0.13933463 -0.30224147 1.0793918 0 0 0
-0.075580768 0.18583675 0.86085761 0 0 0
-0.076587342 0.19065227 0.86835349 0 0 0
-0.074960344 0.17723739 0.85645318 0 0 0
-0.066843279 0.17918944 0.85363948 0 0 0
-0.050496422 0.17732805 0.85072118 0 0 0
-0.035810277 0.18106376 0.85001552 0 0 0
-0.018194016 0.18189999 0.84423244 0 0 0
0.11887784 -0.11831566 1.5421855 0 0 0
0.13219516 -0.12623468 1.570655 0 0 0
0.16945639 -0.16881111 1.6029173 0 0 0
0.18067326 -0.17334935 1.6045309 0 0 0
0.17973389 -0.16583516 1.5923628 0 0 0
0.17980076 -0.15863021 1.5860472 0 0 0
0.19157301 -0.15328893 1.5743645 0 0 0
0.22592323 -0.15583137 1.5667018 0 0 0
0.26884004 -0.16977753 1.5669538 0 0 0
0.26776659 -0.16342239 1.5595205 0 0 0
0.27862132 -0.16655457 1.5616461 0 0 0
0.28846684 -0.16602992 1.5557603 0 0 0
0.28778765 -0.15957345 1.5502187 0 0 0
0.29584438 -0.17445712 1.5697209 0 0 0
0.29867983 -0.16673981 1.5569751 0 0 0
0.30443099 -0.16161758 1.5499614 0 0 0
0.38764459 -0.15748756 1.5248493 0 0 0
0.4031693 -0.17900716 1.541446 0 0 0
0.4190138 -0.17428881 1.5334413 0 0 0
0.43810761 0.23755258 1.4131788 0 0 0
0.4339976 0.24142538 1.4025128 0 0 0
0.42997786 0.25281325 1.3705502 0 0 0
0.49365339 -0.18181193 1.5149231 0 0 0
0.50542241 0.22799145 1.4146012 0 0 0
0.5080927 0.22886057 1.4042737 0 0 0
0.48194236 0.25203434 1.3358492 0 0 0
0.5592283 -0.17472735 1.4854034 0 0 0
0.58121586 -0.21024753 1.522586 0 0 0
0.62751138 0.24222372 1.2787515 0 0 0
0.69615424 -0.18192893 1.4539984 0 0 0
0.70672405 -0.52745456 1.4939667 0 0 0
0.70826197 -0.51101875 1.4973326 0 0 0
0.71096593 -0.19379614 1.4626391 0 0 0
0.69255662 -0.61430144 1.4673432 0 0 0
0.69445765 -0.6042313 1.4704939 0 0 0
0.69723153 -0.58949661 1.4739273 0 0 0
0.69917357 -0.57818156 1.477289 0 0 0
0.7028417 -0.56728184 1.4818681 0 0 0
0.70507592 -0.55788058 1.4858406 0 0 0
0.70759255 -0.54819751 1.489303 0 0 0
0.70867276 -0.53790551 1.4909011 0 0 0
0.71128279 -0.51906288 1.4956725 0 0 0
0.71609974 -0.49662459 1.5008218 0 0 0
0.72127485 -0.46774581 1.5099499 0 0 0
0.72781056 -0.43920138 1.5205569 0 0 0
0.72936356 -0.4295271 1.5224273 0 0 0
0.73450524 -0.40162599 1.5302019 0 0 0
0.72004175 -0.50549865 1.4988196 0 0 0
0.72305399 -0.48846665 1.5025203 0 0 0
0.72484791 -0.47916695 1.507483 0 0 0
0.72973573 -0.45853186 1.5138898 0 0 0
0.72958624 -0.44971231 1.5167029 0 0 0
0.73465478 -0.42134535 1.5246615 0 0 0
0.73800802 -0.41028255 1.5286468 0 0 0
0.74227744 -0.39285797 1.5350424 0 0 0
0.74357373 -0.38139176 1.5367551 0 0 0
0.74732578 -0.37220794 1.5420997 0 0 0
0.74742514 -0.36287519 1.5433787 0 0 0
0.74872476 -0.34748864 1.5466584 0 0 0
0.70109636 -0.62042427 1.4643664 0 0 0
0.70578927 -0.59912199 1.4700016 0 0 0
0.70676857 -0.58759844 1.4730589 0 0 0
0.70933622 -0.57691395 1.4765667 0 0 0
0.71139896 -0.56696284 1.4794632 0 0 0
0.71320522 -0.55695879 1.4822003 0 0 0
0.71577013 -0.54759616 1.4864024 0 0 0
0.7182976 -0.53358132 1.4908299 0 0 0
0.72090453 -0.51986724 1.4930266 0 0 0
0.7256434 -0.49663797 1.4982604 0 0 0
0.74012929 -0.44493049 1.5149264 0 0 0
0.73652023 -0.43793839 1.5187299 0 0 0
0.75670904 -0.36341569 1.5411518 0 0 0
0.7530179 -0.3552179 1.5451851 0 0 0
0.75882542 -0.31715167 1.5540627 0 0 0
0.76228017 -0.3053689 1.5571016 0 0 0
0.76420814 -0.29355112 1.5605007 0 0 0
0.77071255 -0.27784258 1.566215 0 0 0
0.77427912 -0.26299915 1.5692023 0 0 0
0.72600996 -0.20200811 1.466476 0 0 0
0.72254586 -0.195122 1.4591078 0 0 0
0.70934039 -0.15736525 1.4300588 0 0 0
0.70314842 -0.10439152 1.4047637 0 0 0
0.69909942 -0.077348553 1.3953362 0 0 0
0.69701457 -0.061015718 1.3905067 0 0 0
0.73148912 -0.4884083 1.5003915 0 0 0
0.73324561 -0.47837606 1.5039833 0 0 0
0.73615146 -0.46851248 1.507655 0 0 0
0.73751581 -0.45738423 1.5098717 0 0 0
0.74418026 -0.4311665 1.520539 0 0 0
0.74557376 -0.42073786 1.5238309 0 0 0
0.74688005 -0.40992278 1.5259893 0 0 0
0.74962109 -0.39737368 1.5300512 0 0 0
0.75167161 -0.38737226 1.5334494 0 0 0
0.75334495 -0.37638226 1.5367907 0 0 0
0.75882304 -0.34789446 1.5445458 0 0 0
0.76025796 -0.33607325 1.5466324 0 0 0
0.76287216 -0.32562923 1.5500138 0 0 0
0.7802949 -0.27903917 1.569334 0 0 0
0.72326303 -0.18028784 1.4440309 0 0 0
0.71541035 -0.16514541 1.4324476 0 0 0
0.71125424 -0.13637294 1.4145135 0 0 0
0.70861155 -0.11480526 1.4068141 0 0 0
0.70447195 -0.087224305 1.3956034 0 0 0
0.70356876 -0.068737507 1.3914044 0 0 0
0.69825226 -0.051623598 1.3863757 0 0 0
0.70257926 -0.039471351 1.3862437 0 0 0
0.70203435 -0.027934792 1.3872614 0 0 0
0.70048314 -0.0065139825 1.3865458 0 0 0
0.69872093 0.0093883462 1.3839241 0 0 0
0.69861436 0.020080062 1.3831692 0 0 0
0.69655746 0.030156447 1.3819569 0 0 0
0.7036649 0.041042633 1.387894 0 0 0
0.69994658 0.056447305 1.383595 0 0 0
0.71125245 0.086834826 1.3910395 0 0 0
0.71363407 0.096883275 1.3931024 0 0 0
0.7141304 0.10677062 1.3941857 0 0 0
0.7163586 0.13388315 1.3989083 0 0 0
0.72453773 0.16364515 1.4092786 0 0 0
0.6727441 0.23183696 1.3074052 0 0 0
0.67043161 0.23566876 1.2999223 0 0 0
0.71325284 -0.62029445 1.4617391 0 0 0
0.71422261 -0.60991323 1.4633455 0 0 0
0.71751863 -0.59756428 1.4677576 0 0 0
0.71881801 -0.58919114 1.4710968 0 0 0
0.72110128 -0.5801 1.4740584 0 0 0
0.72340918 -0.56947482 1.476905 0 0 0
0.72455013 -0.55818146 1.4787551 0 0 0
0.72660422 -0.54770625 1.482515 0 0 0
0.72794914 -0.53743434 1.4855417 0 0 0
0.73081672 -0.52543271 1.4905515 0 0 0
0.73801821 -0.51298815 1.4974364 0 0 0
0.73826683 -0.49508566 1.4998112 0 0 0
0.75242722 -0.42281631 1.5177038 0 0 0
0.75510579 -0.41470104 1.5202008 0 0 0
0.75661784 -0.40025699 1.5240275 0 0 0
0.76155573 -0.39263386 1.5311987 0 0 0
0.7610271 -0.38170901 1.5312946 0 0 0
0.76753682 -0.37274221 1.5373824 0 0 0
0.76511866 -0.36166802 1.537333 0 0 0
0.76939631 -0.34817013 1.5427325 0 0 0
0.7718876 -0.33675078 1.5474561 0 0 0
0.77207506 -0.32741609 1.5473291 0 0 0
0.77362758 -0.31637576 1.5505116 0 0 0
0.77655154 -0.30884138 1.5559835 0 0 0
0.77938658 -0.29799917 1.5590014 0 0 0
0.78002381 -0.28717127 1.560308 0 0 0
0.72745222 -0.17530511 1.4384006 0 0 0
0.72058594 -0.15928853 1.4247565 0 0 0
0.71830988 -0.14799562 1.4181372 0 0 0
0.71595258 -0.12909047 1.4116614 0 0 0
0.71426857 -0.12106901 1.4081893 0 0 0
0.71197647 -0.10371746 1.4015634 0 0 0
0.71075797 -0.09304402 1.398182 0 0 0
0.70889091 -0.060915042 1.3889884 0 0 0
0.70830125 -0.018545538 1.3844435 0 0 0
0.70946825 -0.0084249238 1.3845974 0 0 0
0.70503229 0.0009284917 1.3807311 0 0 0
0.71061027 0.027875399 1.3846382 0 0 0
0.71167427 0.037594587 1.3857173 0 0 0
0.71181822 0.048775658 1.3854344 0 0 0
0.71054339 0.059344281 1.3840007 0 0 0
0.70924956 0.069448166 1.3833656 0 0 0
0.71908236 0.11807779 1.3944267 0 0 0
0.72241443 0.14438771 1.4002742 0 0 0
0.74873084 -0.49128357 1.5032806 0 0 0
0.7434932 -0.48454744 1.4999793 0 0 0
0.74643457 -0.47336164 1.5032519 0 0 0
0.74776006 -0.45891157 1.5064967 0 0 0
0.75200868 -0.44546264 1.5124074 0 0 0
0.75366962 -0.43266433 1.516331 0 0 0
0.78746361 -0.27812439 1.5622036 0 0 0
0.73777187 -0.1897912 1.4501604 0 0 0
0.71681583 -0.11516187 1.4020783 0 0 0
0.71221238 -0.08297991 1.3924174 0 0 0
0.71504682 -0.072618932 1.3912668 0 0 0
0.71232557 -0.051456474 1.3856535 0 0 0
0.71317786 -0.04098025 1.3851538 0 0 0
0.71231937 -0.030180063 1.3836439 0 0 0
0.71120137 0.011110995 1.3801222 0 0 0
0.71671385 0.074161686 1.3846211 0 0 0
0.7186833 0.090527758 1.3873714 0 0 0
0.72303015 0.10675539 1.3921397 0 0 0
0.7242834 0.12745614 1.3950028 0 0 0
0.73110938 0.14972568 1.4032589 0 0 0
0.73441941 0.1627122 1.4088486 0 0 0
0.73563087 0.1741602 1.4109348 0 0 0
0.74044615 0.18562013 1.4174688 0 0 0
0.71319199 0.21113682 1.3615947 0 0 0
0.70698535 0.21425506 1.3499399 0 0 0
0.72371238 -0.62025607 1.4591557 0 0 0
0.72766602 -0.59735096 1.4663905 0 0 0
0.73666847 -0.5707044 1.4771947 0 0 0
0.73628747 -0.55875814 1.4778382 0 0 0
0.73904979 -0.5482977 1.4817126 0 0 0
0.73994529 -0.53756511 1.4838678 0 0 0
0.74282455 -0.52909273 1.4888338 0 0 0
0.74722868 -0.50626343 1.4967712 0 0 0
0.74766147 -0.49581173 1.496012 0 0 0
0.75699693 -0.45539799 1.5108615 0 0 0
0.7603637 -0.4258779 1.5166756 0 0 0
0.76592815 -0.40708897 1.5255061 0 0 0
0.77128845 -0.39404431 1.5304842 0 0 0
0.77172202 -0.37592316 1.5303414 0 0 0
0.77921128 -0.36572161 1.5404257 0 0 0
0.77274168 -0.35556439 1.5367937 0 0 0
0.77890617 -0.34836286 1.5414697 0 0 0
0.78238064 -0.33731672 1.5458888 0 0 0
0.77975011 -0.3225818 1.5472972 0 0 0
0.8022517 -0.27263927 1.5705138 0 0 0
0.73141581 -0.16566429 1.426247 0 0 0
0.72918832 -0.14895894 1.4177753 0 0 0
0.72555679 -0.13636836 1.4115809 0 0 0
0.72459197 -0.12789446 1.407336 0 0 0
0.71942568 -0.10395426 1.397332 0 0 0
0.72246385 -0.093583129 1.395032 0 0 0
0.71906877 -0.020115767 1.3825192 0 0 0
0.71442479 6.3232263e-05 1.3793325 0 0 0
0.71391255 0.021396931 1.37782 0 0 0
0.72050154 0.03205378 1.3832518 0 0 0
0.72233921 0.042757235 1.3850812 0 0 0
0.7165882 0.052584041 1.3793324 0 0 0
0.72966963 0.11612106 1.392591 0 0 0
0.73205662 0.13323595 1.3963745 0 0 0
0.73715073 0.15641169 1.4031755 0 0 0
0.74450535 0.17579879 1.4119799 0 0 0
0.73401368 0.20185505 1.3940606 0 0 0
0.68388015 0.23600379 1.2939415 0 0 0
0.75559443 -0.48027647 1.4992806 0 0 0
0.75869727 -0.46339723 1.5042322 0 0 0
-0.62275219 0.0090461606 1.507105 0 0 0
-0.61481577 0.013231776 1.4895313 0 0 0
-0.65176976 -0.060391176 1.6630858 0 0 0
-0.63807899 -0.070112526 1.6719137 0 0 0
-0.53996748 -0.066227041 1.6278332 0 0 0
-0.48102453 -0.075801559 1.6381229 0 0 0
-0.32786068 0.0034440183 1.2364821 0 0 0
-0.23516366 -0.31789845 1.0663575 0 0 0
-0.23748173 -0.31403741 1.0955032 0 0 0
0.13818651 -0.13233903 1.5823797 0 0 0
0.26321387 -0.17441165 1.5783042 0 0 0
0.35887882 0.24170771 1.4921417 0 0 0
0.38802561 0.24149981 1.4405452 0 0 0
0.51025581 0.23814812 1.3711945 0 0 0
-0.67663211 0.035309773 1.4571104 0 0 0
-0.67057621 0.036865391 1.448541 0 0 0
-0.65627325 0.034359623 1.4459929 0 0 0
-0.5605042 0.08467228 1.2539566 0 0 0
-0.64851135 0.029732447 1.4519337 0 0 0
-0.64296287 0.032542646 1.4453019 0 0 0
-0.51269174 0.10564341 1.1591853 0 0 0
-0.64473337 0.023435447 1.4691874 0 0 0
-0.63694018 0.027478436 1.4530388 0 0 0
-0.63306665 0.031712346 1.4415371 0 0 0
-0.58731341 0.04186802 1.3523515 0 0 0
-0.64909542 0.01125064 1.5144364 0 0 0
-0.61715633 0.026080297 1.4472984 0 0 0
-0.63502496 0.015366925 1.4932482 0 0 0
-0.61550033 0.019165169 1.4692179 0 0 0
-0.60607487 0.02254029 1.4571588 0 0 0
-0.37884429 0.21545789 0.96330792 0 0 0
-0.64002025 -0.1810248 1.5642769 0 0 0
-0.58736289 -0.45031655 1.4550787 0 0 0
-0.49821654 0.028860807 1.3236668 0 0 0
-0.3424536 0.21088912 0.94698787 0 0 0
-0.44041342 0.084915482 1.1980467 0 0 0
-0.54221308 -0.061989136 1.6182445 0 0 0
-0.51357019 -0.037724819 1.5279815 0 0 0
-0.51933134 -0.044276278 1.5655123 0 0 0
-0.55390948 -0.093751319 1.6687064 0 0 0
-0.53616929 -0.070279419 1.6346316 0 0 0
-0.50527596 -0.039324228 1.54974 0 0 0
-0.49707913 -0.032593839 1.5357771 0 0 0
-0.49650058 -0.42838734 1.4385445 0 0 0
-0.48864484 -0.028597765 1.5196544 0 0 0
-0.44342753 0.0054018367 1.4025749 0 0 0
-0.35049894 0.010489739 1.2714645 0 0 0
-0.2958371 -0.30151856 1.0848818 0 0 0
-0.19797063 -0.30010128 1.0957334 0 0 0
-0.18562651 -0.30942896 1.088545 0 0 0
-0.15602946 -0.31929815 1.0721178 0 0 0
-0.1278241 -0.29153797 1.0776181 0 0 0
-0.12418626 -0.31100133 1.0708488 0 0 0
-0.12087113 -0.32012901 1.0684876 0 0 0
-0.01813346 0.034632735 1.1542389 0 0 0
0.063333154 -0.11780725 1.5321325 0 0 0
0.06254629 -0.11206028 1.5172092 0 0 0
0.065401144 -0.1092077 1.507632 0 0 0
0.072855435 -0.12447038 1.5462219 0 0 0
0.075333677 -0.12095427 1.5317012 0 0 0
0.085224539 -0.12533388 1.5400988 0 0 0
0.084524639 -0.11954004 1.5280191 0 0 0
0.095377587 -0.12060784 1.5301259 0 0 0
0.099240683 -0.12385433 1.5376592 0 0 0
0.10932224 -0.12831789 1.5497671 0 0 0
0.10988075 -0.12204906 1.5401058 0 0 0
0.10577121 -0.11575122 1.5231838 0 0 0
0.12217487 -0.12948366 1.5663803 0 0 0
0.120806 -0.12411642 1.5537356 0 0 0
0.12688671 -0.13529529 1.5746894 0 0 0
0.140931 -0.13853182 1.5888928 0 0 0
0.15090112 0.14209582 1.4278719 0 0 0
0.18033278 -0.15164058 1.5802383 0 0 0
0.20227881 -0.15268029 1.5711713 0 0 0
0.24590385 -0.18214394 1.5964304 0 0 0
0.24187514 -0.16289912 1.5727451 0 0 0
0.25258136 -0.18828744 1.6058698 0 0 0
0.25887975 -0.17960021 1.5873668 0 0 0
0.30428103 -0.17826089 1.5738146 0 0 0
0.33527938 -0.17235313 1.5526404 0 0 0
0.33958411 -0.16858529 1.5455412 0 0 0
0.33760577 -0.15874642 1.5380358 0 0 0
0.35755888 0.2154859 1.5238652 0 0 0
0.3520115 0.24554963 1.47616 0 0 0
0.3820557 0.23737948 1.4799324 0 0 0
0.37264809 0.24665473 1.441371 0 0 0
0.44071698 0.23431389 1.4264747 0 0 0
0.59415662 -0.21553983 1.5267358 0 0 0
0.66422534 0.22170657 1.3484384 0 0 0
0.74611712 -0.43872154 1.515533 0 0 0
0.78516394 -0.30826816 1.5516114 0 0 0
0.72219563 0.20569326 1.381822 0 0 0
0.73859692 -0.17214808 1.4327414 0 0 0
0.72333699 0.20791017 1.370157 0 0 0
-0.67843461 0.0074679339 1.5311705 0 0 0
-0.65700758 -0.17713802 1.569579 0 0 0
-0.62544638 0.0031983107 1.5201783 0 0 0
-0.51011425 0.028318845 1.3248132 0 0 0
-0.42538667 0.078730159 1.2099893 0 0 0
-0.51968664 -0.036186155 1.5133342 0 0 0
-0.51234895 -0.43740582 1.4415414 0 0 0
-0.50006855 -0.027815616 1.494675 0 0 0
-0.49844173 -0.022757245 1.4875956 0 0 0
-0.47406918 -0.1848426 1.5179565 0 0 0
-0.21786991 0.062383957 1.091668 0 0 0
0.073856823 -0.11263733 1.5125018 0 0 0
0.10156883 -0.10903699 1.5038787 0 0 0
0.15239581 0.038376115 1.5202379 0 0 0
0.16118976 0.11396845 1.5008695 0 0 0
0.15753928 -0.15804024 1.5999725 0 0 0
0.21724094 -0.16786709 1.5854241 0 0 0
0.24788785 -0.17057912 1.5808278 0 0 0
0.27581215 -0.17586246 1.5784415 0 0 0
0.28402051 -0.1749015 1.5738478 0 0 0
0.2962293 -0.18213347 1.580557 0 0 0
0.29972681 -0.18718855 1.589206 0 0 0
0.68987 0.20663938 1.4002501 0 0 0
0.6870212 0.2095578 1.38897 0 0 0
0.7043612 -0.187627 1.4584329 0 0 0
0.68713689 0.23245876 1.3013724 0 0 0
-0.63323617 0.022132238 1.4691172 0 0 0
-0.51379377 0.034378476 1.309037 0 0 0
-0.52249604 0.021999808 1.3499405 0 0 0
-0.65548801 -0.082581677 1.6914264 0 0 0
-0.508102 0.022758102 1.3429432 0 0 0
-0.64723235 -0.082371257 1.6854199 0 0 0
-0.59357762 -0.059496142 1.6410127 0 0 0
-0.55679518 -0.06758707 1.6393262 0 0 0
-0.45571303 0.0009822665 1.414495 0 0 0
-0.52775013 -0.082510188 1.6563091 0 0 0
-0.22163092 -0.28270742 1.1074691 0 0 0
-0.16966286 -0.3169564 1.0785283 0 0 0
-0.16178793 -0.2877672 1.089164 0 0 0
-0.1531954 -0.2951538 1.0837046 0 0 0
0.075857125 -0.13020737 1.5568173 0 0 0
0.089721225 -0.13033393 1.5492092 0 0 0
0.12758465 0.15043117 1.8517743 0 0 0
0.11212663 0.22285257 1.228438 0 0 0
0.13870823 0.14991191 1.4067606 0 0 0
0.20359929 -0.1597558 1.5784032 0 0 0
0.21294329 -0.15984377 1.5770894 0 0 0
0.36863348 0.24415046 1.4555591 0 0 0
0.56972641 -0.20577563 1.522121 0 0 0
-0.60423589 0.045618337 1.3474253 0 0 0
-0.604518 0.027391614 1.4404209 0 0 0
-0.53552115 -0.043377519 1.5387986 0 0 0
-0.33151126 0.019724913 1.2259737 0 0 0
-0.31646788 -0.029946083 1.2431983 0 0 0
-0.26002261 -0.027653674 1.2124581 0 0 0
-0.15912293 0.19400747 0.88482976 0 0 0
0.065610006 -0.10030845 1.4843141 0 0 0
0.1312823 -0.058334544 1.5515486 0 0 0
0.13672578 -0.068035439 1.5535566 0 0 0
0.14243667 -0.012871353 1.5261834 0 0 0
0.24695122 0.12326116 1.4359422 0 0 0
0.357023 0.24006031 1.5066208 0 0 0
-0.533068 0.023037478 1.3457508 0 0 0
