ply
format ascii 1.0
comment Author: CloudCompare (TELECOM PARISTECH/EDF R&D)
obj_info Generated by CloudCompare!
element vertex 745
property float x
property float y
property float z
property uchar red
property uchar green
property uchar blue
property float nx
property float ny
property float nz
end_header
0.17033 0.265711 1.09782 82 90 98 -0.118304 -0.931475 -0.344034 
0.168874 0.270075 1.08729 84 90 100 -0.125848 -0.919657 -0.372012 
0.168262 0.274267 1.07604 87 92 100 -0.146457 -0.921981 -0.358471 
0.167168 0.278218 1.06493 81 88 97 -0.130658 -0.928359 -0.347963 
0.175504 0.253651 1.12715 88 91 99 -0.130945 -0.924882 -0.356996 
0.168684 0.282352 1.05156 83 86 97 -0.136407 -0.927294 -0.348596 
0.166395 0.297228 1.02614 155 167 189 -0.217306 -0.559448 -0.799872 
0.165668 0.306699 1.02536 35 30 31 -0.201478 0.0104815 -0.979437 
0.159614 0.340578 1.03973 23 23 23 -0.173266 0.385194 -0.906424 
0.158948 0.348611 1.04345 26 27 27 -0.197132 0.369802 -0.907957 
0.157205 0.357255 1.04743 28 27 28 -0.172745 0.378326 -0.909411 
0.15665 0.369255 1.05253 29 29 29 -0.184863 0.371158 -0.909982 
0.169206 0.2871 1.03997 92 91 95 -0.129857 -0.911795 -0.389572 
0.164498 0.325213 1.03247 26 24 24 -0.184381 0.370192 -0.910473 
0.163677 0.333734 1.03596 26 25 25 -0.183808 0.39801 -0.898778 
0.174615 0.275757 1.06887 85 89 95 -0.13597 -0.929816 -0.341986 
0.171221 0.290695 1.03171 98 87 85 -0.16181 -0.841707 -0.515119 
0.165598 0.354479 1.0445 30 28 30 -0.170297 0.38782 -0.905867 
0.163777 0.363264 1.04819 31 28 31 -0.167142 0.392856 -0.904283 
0.166281 0.37267 1.05208 32 29 31 -0.176499 0.386003 -0.905456 
0.174033 0.369936 1.04921 32 32 36 -0.176303 0.388441 -0.904451 
0.181016 0.37704 1.0515 40 37 39 -0.177921 0.368653 -0.912381 
0.194207 0.376428 1.04844 38 34 39 -0.176042 0.385002 -0.905971 
0.20273 0.379444 1.04787 37 36 40 -0.195554 0.383865 -0.902445 
0.309931 0.413836 1.03616 176 200 224 -0.265852 -0.660651 -0.702042 
0.379012 0.424971 1.01028 76 88 110 -0.258731 -0.278744 -0.924857 
0.853473 0.215685 1.37881 12 12 12 -0.0679211 -0.72401 -0.686437 
0.200116 -0.190826 1.61161 96 109 119 -0.384121 -0.647895 -0.657787 
0.202633 -0.185446 1.60065 84 102 110 -0.372818 -0.622458 -0.688152 
0.210717 -0.193229 1.60714 98 111 126 -0.311711 -0.67026 -0.67349 
0.159658 0.142918 1.43043 23 22 22 -0.102769 -0.919441 -0.379561 
0.158913 0.273918 1.08044 78 79 90 -0.139688 -0.92526 -0.352678 
0.158135 0.277908 1.06937 77 81 91 -0.144919 -0.928861 -0.340904 
0.157391 0.282069 1.05792 73 80 87 -0.126894 -0.931917 -0.339747 
0.148881 0.348799 1.04541 26 27 27 -0.172298 0.377346 -0.909903 
0.145948 0.366308 1.05347 30 29 27 -0.189827 0.392695 -0.899865 
0.158875 0.285072 1.04818 80 83 93 -0.137055 -0.923392 -0.358558 
0.158221 0.288954 1.03871 90 89 87 -0.144443 -0.890972 -0.43047 
0.157899 0.297922 1.02846 172 184 203 -0.20283 -0.550538 -0.809795 
0.156749 0.309143 1.02828 34 33 32 -0.211971 0.0248681 -0.97696 
0.155757 0.317386 1.03081 30 28 28 -0.183388 0.290939 -0.939001 
0.153974 0.329014 1.03592 23 23 23 -0.176762 0.38945 -0.903927 
0.192186 0.385048 1.05209 39 37 38 -0.184665 0.373625 -0.909012 
0.201775 0.387791 1.05153 41 38 41 -0.17597 0.379122 -0.908461 
0.213841 0.390756 1.05004 41 36 39 -0.173074 0.387629 -0.905422 
0.221714 0.395743 1.05059 42 41 44 -0.188204 0.377844 -0.906539 
0.231161 0.393474 1.04799 43 41 43 -0.172218 0.371479 -0.912329 
0.241958 0.401612 1.04976 42 40 44 -0.141357 0.373686 -0.916721 
0.251951 0.401139 1.04742 28 29 32 -0.0114031 0.350962 -0.93632 
0.257612 0.407432 1.04977 57 62 71 0.0762264 0.295862 -0.952184 
0.266141 0.411094 1.05286 74 86 100 0.321198 0.052888 -0.945534 
0.281705 0.415262 1.04788 145 170 189 -0.417701 -0.630712 -0.65401 
0.289659 0.412555 1.04521 141 170 191 -0.401577 -0.689126 -0.603192 
0.29909 0.414089 1.03978 168 197 218 -0.311205 -0.630472 -0.711095 
0.444941 0.436075 0.992561 39 40 46 -0.263299 0.013347 -0.964622 
0.187019 -0.18267 1.61019 91 101 110 -0.398682 -0.646824 -0.650132 
0.137503 0.114589 1.85107 3 3 3 -0.233394 0.33777 -0.911833 
0.135015 0.12723 1.8566 3 3 3 -0.209589 0.332206 -0.919626 
0.13921 0.136779 1.85939 2 2 2 -0.253305 0.338228 -0.906333 
0.137601 0.149066 1.86357 1 1 1 -0.301778 0.298834 -0.905333 
0.136864 0.159761 1.86717 1 1 1 -0.303066 0.285497 -0.909199 
0.140187 0.169691 1.86747 4 4 4 -0.312314 0.26002 -0.913701 
0.150339 0.127116 1.85261 4 4 4 -0.273673 0.344679 -0.897942 
0.148777 0.1377 1.85778 6 6 6 -0.299486 0.329285 -0.895477 
0.148451 0.149445 1.86274 7 6 8 -0.315201 0.297443 -0.901208 
0.160049 0.121544 1.84928 10 10 10 -0.264542 0.325928 -0.907628 
0.15238 0.253932 1.13579 82 84 94 -0.139466 -0.926553 -0.349356 
0.15 0.270565 1.09216 70 80 90 -0.134411 -0.921478 -0.364434 
0.151356 0.276165 1.0767 70 77 86 -0.145387 -0.926324 -0.347544 
0.150686 0.302856 1.02796 64 61 69 -0.227313 -0.313091 -0.922118 
0.142276 0.373653 1.05798 28 25 25 -0.179476 0.38336 -0.905993 
0.148156 0.339799 1.04186 27 26 27 -0.188981 0.38229 -0.904511 
0.145607 0.356849 1.04959 28 26 28 -0.194156 0.372491 -0.907499 
0.160539 0.377958 1.05607 35 33 36 -0.178934 0.376476 -0.908982 
0.169139 0.38268 1.05602 37 32 35 -0.181146 0.369423 -0.911434 
0.33834 0.419565 1.02357 160 182 205 -0.248674 -0.459207 -0.852813 
0.348108 0.419963 1.02046 148 168 188 -0.241379 -0.453913 -0.857729 
0.130337 0.0747051 1.83721 4 4 4 -0.247134 0.319395 -0.914829 
0.12965 0.0873522 1.83949 4 4 4 -0.244007 0.374145 -0.894693 
0.126286 0.154879 1.61255 0 0 0 0.832957 0.136623 -0.536207 
0.124239 0.166392 1.60326 0 0 0 0.933647 -0.0140111 -0.357919 
0.12354 0.174322 1.59919 0 0 0 0.956013 -0.054593 -0.2882 
0.123171 0.182355 1.59526 0 0 0 0.943392 -0.108083 -0.313575 
0.121281 0.18455 1.58617 0 0 0 0.957477 -0.0517214 -0.283837 
0.122022 0.192665 1.59033 0 0 0 0.929965 -0.13915 -0.340298 
0.12149 0.199371 1.58416 0 0 0 0.911454 -0.211665 -0.352774 
0.119618 0.206041 1.57466 0 0 0 0.927135 -0.165908 -0.335999 
0.139264 0.0824483 1.83688 3 3 3 -0.26311 0.364192 -0.893385 
0.129152 0.162893 1.61699 1 1 1 0.796723 0.110045 -0.594241 
0.127078 0.169225 1.61111 0 0 0 0.912036 0.003881 -0.410093 
0.126892 0.182254 1.61203 0 0 0 0.934202 -0.11525 -0.337614 
0.125289 0.19192 1.60055 0 0 0 0.911434 -0.181146 -0.369423 
0.125196 0.201774 1.59597 2 2 2 0.883424 -0.24283 -0.400744 
0.123843 0.209573 1.58919 2 2 2 0.844707 -0.302235 -0.441728 
0.131711 0.165929 1.62495 4 4 4 0.772203 0.175155 -0.610756 
0.131141 0.176048 1.62604 2 2 2 0.833468 0.0576259 -0.549555 
0.130857 0.185293 1.62405 0 0 0 0.836569 -0.220952 -0.501332 
0.129208 0.19103 1.61384 0 0 0 0.887982 -0.258186 -0.380564 
0.128982 0.204155 1.60467 3 3 3 0.806004 -0.376562 -0.456682 
0.135255 0.168891 1.63267 5 5 5 0.653605 0.206483 -0.728125 
0.135826 0.182308 1.63296 5 5 5 0.663164 -0.126672 -0.737677 
0.133191 0.197306 1.62278 2 2 2 0.780395 -0.376464 -0.499259 
0.144264 0.177499 1.34341 17 17 18 -0.0879804 -0.921764 -0.377639 
0.142327 0.273141 1.08895 71 80 88 -0.133914 -0.926355 -0.352042 
0.145443 0.279306 1.07046 71 77 86 -0.148714 -0.924251 -0.351632 
0.143107 0.283421 1.0604 70 80 92 -0.145387 -0.926324 -0.347544 
0.136133 0.350763 1.04831 27 25 26 -0.184863 0.371158 -0.909982 
0.147248 0.286057 1.0511 80 82 88 -0.124686 -0.927607 -0.352134 
0.14663 0.290025 1.04061 85 82 86 -0.152533 -0.875977 -0.4576 
0.14416 0.308233 1.03 36 30 35 -0.217651 -0.0396822 -0.97522 
0.143046 0.319199 1.03357 28 26 28 -0.178852 0.303632 -0.935852 
0.141509 0.330278 1.03918 24 24 24 -0.164122 0.389611 -0.906238 
0.139718 0.34283 1.04475 24 23 24 -0.173074 0.387629 -0.905422 
0.148048 0.295723 1.03221 138 142 157 -0.199492 -0.703634 -0.681984 
0.956352 -0.266199 1.52747 219 227 234 -0.2547 0.0156924 -0.966893 
0.146681 0.162303 1.38051 13 13 13 -0.166911 -0.883903 -0.436871 
0.142699 -0.138985 1.55384 36 33 39 0.541671 -0.615919 -0.572045 
0.142433 -0.13117 1.54109 20 22 26 0.492992 -0.700216 -0.516388 
0.142082 -0.126684 1.53138 16 15 17 0.518931 -0.705813 -0.482222 
0.142452 -0.11969 1.52448 15 15 21 0.474576 -0.704371 -0.527862 
0.141311 -0.113544 1.5109 37 37 37 0.526462 -0.690251 -0.496379 
0.13907 -0.104812 1.49002 126 135 135 0.567978 -0.710387 -0.415634 
0.112799 0.0947488 1.56924 0 0 0 0.90287 0.011828 -0.42975 
0.108877 0.101926 1.55056 0 0 0 0.925547 -0.0542882 -0.374721 
0.111901 0.109561 1.56457 0 0 0 0.935628 -0.0727858 -0.345402 
0.11046 0.115878 1.55587 0 0 0 0.952347 -0.0870495 -0.29233 
0.107714 0.117995 1.54332 0 0 0 0.956533 -0.0704275 -0.28299 
0.107062 0.128527 1.54001 0 0 0 0.960293 -0.0619952 -0.27202 
0.108879 0.139909 1.5448 0 0 0 0.952237 -0.0495824 -0.301309 
0.107043 0.152346 1.53396 0 0 0 0.942735 -0.0830661 -0.323035 
0.105846 0.161885 1.52933 0 0 0 0.955033 -0.075837 -0.286638 
0.105029 0.169679 1.52432 0 0 0 0.961144 -0.0618871 -0.269019 
0.103538 0.184786 1.5135 0 0 0 0.956117 -0.0467323 -0.289235 
0.102583 0.193076 1.50996 0 0 0 0.95521 -0.0974704 -0.279415 
0.151877 -0.14346 1.57193 36 37 41 0.438332 -0.608331 -0.661664 
0.149599 -0.139151 1.56283 27 27 33 0.610436 -0.539416 -0.579999 
0.150113 -0.131074 1.55161 22 24 25 0.534301 -0.63206 -0.561269 
0.149372 -0.123939 1.53918 18 20 20 0.607628 -0.627826 -0.486439 
0.149109 -0.108346 1.52419 29 36 38 0.454073 -0.63168 -0.628329 
0.140643 -0.0683144 1.54322 57 66 71 0.168049 -0.776657 -0.607094 
0.120678 0.0143872 1.81393 8 8 9 -0.329985 0.245672 -0.911458 
0.117719 0.0292302 1.81931 10 10 10 -0.264339 0.319836 -0.909852 
0.115599 0.0966469 1.58047 0 0 0 0.912557 0.00649045 -0.408898 
0.115039 0.111468 1.57444 0 0 0 0.925639 -0.0487178 -0.375259 
0.112696 0.121086 1.56465 0 0 0 0.947708 -0.0213958 -0.31842 
0.112093 0.131056 1.5604 0 0 0 0.955526 -0.0441789 -0.29158 
0.111751 0.142671 1.55479 0 0 0 0.959243 -0.0515452 -0.277841 
0.109312 0.152248 1.5478 0 0 0 0.96225 -0.03849 -0.26943 
0.108238 0.158574 1.54029 0 0 0 0.956563 -0.0999394 -0.27386 
0.108769 0.169501 1.54325 0 0 0 0.954763 -0.0651846 -0.290135 
0.10787 0.171417 1.53462 0 0 0 0.964032 -0.0459063 -0.26179 
0.107069 0.179472 1.52976 0 0 0 0.966385 -0.0456657 -0.253013 
0.106189 0.187799 1.52283 0 0 0 0.962182 -0.0158534 -0.271947 
0.104529 0.200558 1.51552 0 0 0 0.961144 -0.0618871 -0.269019 
0.104333 0.211306 1.51226 0 0 0 0.963474 -0.0640641 -0.260025 
0.101846 0.213476 1.49986 0 0 0 0.968481 -0.0712302 -0.238684 
0.102462 0.225561 1.502 0 0 0 0.960961 -0.0513682 -0.271875 
0.100739 0.230517 1.49298 0 0 0 0.959249 -0.0568725 -0.276779 
0.100543 0.23896 1.49019 0 0 0 0.957433 -0.0835344 -0.276306 
0.0994711 0.247644 1.48169 0 0 0 0.956021 -0.108253 -0.27259 
0.0972278 0.256056 1.46837 0 0 0 0.947994 -0.126666 -0.291998 
0.128734 -0.0057171 1.80647 11 11 11 -0.404972 0.291886 -0.866487 
0.121977 0.0392604 1.82322 8 8 8 -0.221036 0.382055 -0.897317 
0.120196 0.10149 1.59109 3 3 3 0.662866 0.0984746 -0.742234 
0.117327 0.112292 1.58824 0 0 0 0.890953 0.0588494 -0.450266 
0.116823 0.123396 1.5816 0 0 0 0.926619 0.00127458 -0.376001 
0.115012 0.139774 1.57094 0 0 0 0.956001 -0.0492524 -0.2892 
0.113834 0.148196 1.56567 0 0 0 0.955796 -0.108524 -0.273271 
0.112391 0.161488 1.55464 0 0 0 0.960282 -0.0412085 -0.275972 
0.111373 0.175055 1.55052 0 0 0 0.955101 -0.0261501 -0.295123 
0.110234 0.181782 1.54354 0 0 0 0.963321 -0.0588766 -0.261813 
0.109835 0.19157 1.54026 0 0 0 0.964845 -0.071703 -0.252847 
0.109101 0.199361 1.53401 0 0 0 0.960465 -0.023426 -0.277413 
0.107818 0.206762 1.52456 0 0 0 0.964052 -0.0718313 -0.25582 
0.106764 0.217544 1.52065 0 0 0 0.962601 -0.0695704 -0.261838 
0.105717 0.225027 1.51606 0 0 0 0.965279 -0.0742523 -0.250444 
0.104867 0.235591 1.50911 0 0 0 0.956306 -0.116431 -0.268184 
0.103486 0.241222 1.49902 0 0 0 0.954189 -0.0813449 -0.287935 
0.102098 0.25196 1.49396 1 1 1 0.944012 -0.153487 -0.292033 
0.100388 0.260809 1.48145 1 1 1 0.927541 -0.181018 -0.326955 
0.155544 -0.13132 1.55938 37 38 41 0.503242 -0.600861 -0.621058 
0.155248 -0.123784 1.55116 32 32 37 0.635214 -0.530749 -0.561078 
0.154441 -0.11766 1.54387 27 29 30 0.606344 -0.485411 -0.629859 
0.150222 -0.0848695 1.5694 23 23 23 -0.576423 -0.499119 -0.647006 
0.134564 -0.010668 1.80046 11 11 12 -0.368225 0.307611 -0.877374 
0.131493 0.00276932 1.80756 10 10 10 -0.353255 0.302146 -0.885392 
0.130055 0.0139909 1.81238 7 7 7 -0.323415 0.285018 -0.902312 
0.128514 0.0275958 1.81921 7 7 7 -0.304676 0.32251 -0.896192 
0.124286 0.0490558 1.82879 8 8 8 -0.238829 0.361906 -0.901102 
0.121752 0.111096 1.59668 1 1 1 0.760024 0.123448 -0.638063 
0.120274 0.121055 1.59218 0 0 0 0.79053 -0.00137007 -0.612421 
0.118565 0.132183 1.58874 0 0 0 0.922987 -0.0247345 -0.384035 
0.117339 0.147285 1.57963 0 0 0 0.958748 -0.0412499 -0.281249 
0.11653 0.157977 1.57559 0 0 0 0.956971 -0.0413893 -0.287217 
0.115374 0.164018 1.56724 0 0 0 0.953439 -0.0789142 -0.291077 
0.114097 0.178888 1.55844 0 0 0 0.954213 -0.0415971 -0.296222 
0.112926 0.188191 1.55265 0 0 0 0.952238 -0.0549614 -0.30037 
0.112256 0.199634 1.54709 0 0 0 0.963772 -0.0537512 -0.261256 
0.110824 0.209926 1.53803 0 0 0 0.963291 -0.0282959 -0.266966 
0.10978 0.217701 1.53392 0 0 0 0.958032 -0.0542758 -0.281477 
0.108533 0.228203 1.52594 0 0 0 0.954522 -0.0950615 -0.28258 
0.107879 0.235825 1.51891 0 0 0 0.94196 -0.197219 -0.271693 
0.106169 0.245977 1.50895 1 1 1 0.925754 -0.157309 -0.343851 
0.105317 0.260515 1.50024 3 3 3 0.895622 -0.286659 -0.340129 
0.104531 0.266627 1.4927 3 3 3 0.838122 -0.366383 -0.404123 
0.154342 -0.09146 1.56445 26 26 28 -0.755382 -0.0676246 -0.651786 
0.149889 -0.063508 1.53724 20 22 26 -0.350101 -0.534024 -0.769576 
0.126022 0.0655814 1.83474 6 6 6 -0.245113 0.353726 -0.902661 
0.12188 0.13333 1.59751 0 0 0 0.810175 0.0207737 -0.585819 
0.121064 0.145521 1.59307 0 0 0 0.925966 0.0141664 -0.377341 
0.120303 0.156687 1.58882 0 0 0 0.927696 -0.0650317 -0.367628 
0.118365 0.166148 1.57967 0 0 0 0.953007 -0.0262985 -0.301806 
0.117803 0.175281 1.5753 0 0 0 0.950278 -0.0497461 -0.307405 
0.116198 0.187 1.56492 0 0 0 0.954923 -0.0416281 -0.29392 
0.115467 0.198738 1.56209 0 0 0 0.956678 -0.0362662 -0.288879 
0.114534 0.205526 1.5553 0 0 0 0.9596 -0.080499 -0.269608 
0.112265 0.2236 1.54115 0 0 0 0.947123 -0.129945 -0.29338 
0.110707 0.23007 1.53505 0 0 0 0.938623 -0.163538 -0.303713 
0.110411 0.237418 1.52831 0 0 0 0.903031 -0.290207 -0.316724 
0.109651 0.24458 1.51968 3 3 3 0.886555 -0.308563 -0.344688 
0.156537 -0.0838106 1.55282 31 31 34 -0.712534 -0.318298 -0.625285 
0.124437 0.146737 1.6045 0 0 0 0.818288 0.0756881 -0.569803 
0.121667 0.167938 1.59228 0 0 0 0.958576 -0.0568325 -0.279111 
0.119266 0.188979 1.5778 0 0 0 0.956069 -0.0337436 -0.291195 
0.115141 0.229074 1.54995 1 1 1 0.884529 -0.27482 -0.376938 
0.11397 0.236437 1.54101 2 2 2 0.84868 -0.359716 -0.387746 
0.113594 0.244426 1.53366 3 3 3 0.799185 -0.445421 -0.403613 
0.119536 0.223234 1.56678 1 1 1 0.865287 -0.327364 -0.37962 
0.118625 0.236026 1.55756 3 3 3 0.749537 -0.482669 -0.453017 
0.125127 0.217904 1.24304 35 35 39 -0.186457 -0.915205 -0.357257 
0.12397 0.221914 1.23394 44 46 48 -0.274091 -0.88518 -0.375939 
0.123385 0.220833 1.57748 2 2 2 0.756259 -0.457693 -0.467536 
0.128536 0.217924 1.59616 3 3 3 0.717719 -0.449196 -0.532073 
0.127401 0.275716 1.08701 63 71 81 -0.133057 -0.931397 -0.338815 
0.129016 0.278697 1.07743 61 68 73 -0.126596 -0.935177 -0.330783 
0.128642 0.283025 1.06615 67 73 79 -0.118414 -0.932344 -0.341633 
0.118946 0.37228 1.06185 29 27 30 -0.181978 0.379719 -0.907027 
0.115694 0.385034 1.06764 27 24 28 -0.207342 0.375536 -0.903317 
0.131816 0.285464 1.05812 68 74 81 -0.11174 -0.938345 -0.327142 
0.131592 0.289548 1.04717 71 73 78 -0.13463 -0.897062 -0.420897 
0.129822 0.294337 1.03907 77 75 89 -0.164644 -0.789988 -0.590603 
0.12956 0.303202 1.03362 94 89 104 -0.203992 -0.412386 -0.887877 
0.128842 0.312198 1.03436 32 30 31 -0.212062 0.085569 -0.973503 
0.127191 0.320463 1.03739 28 26 26 -0.176323 0.309607 -0.934374 
0.127017 0.331943 1.04259 24 24 24 -0.190159 0.402092 -0.895635 
0.121543 0.363462 1.05717 27 26 27 -0.18599 0.384957 -0.904 
0.135865 0.276132 1.08348 72 75 87 -0.113364 -0.927399 -0.356482 
0.127084 0.346797 1.04904 25 24 24 -0.164363 0.393042 -0.904711 
0.125798 0.354983 1.05242 25 24 24 -0.173006 0.381758 -0.907926 
0.137198 0.279093 1.07398 69 77 83 -0.115436 -0.932994 -0.340876 
0.137513 0.296558 1.03402 146 152 168 -0.192604 -0.667179 -0.719567 
0.131042 0.373357 1.05975 30 29 30 -0.185784 0.387409 -0.902994 
0.128089 0.386329 1.06586 32 30 32 -0.181425 0.37285 -0.909982 
0.14192 0.382081 1.06095 32 29 31 -0.18543 0.378047 -0.907026 
0.145436 0.391554 1.06446 34 31 31 -0.178196 0.372073 -0.910938 
0.1514 0.379368 1.05868 36 33 35 -0.166833 0.383574 -0.908316 
0.154765 0.388982 1.0619 36 33 35 -0.179476 0.38336 -0.905993 
0.160967 0.395053 1.06259 38 37 41 -0.174437 0.364474 -0.91473 
0.172516 0.391947 1.05922 37 36 38 -0.202763 0.360947 -0.910277 
0.180259 0.388395 1.05606 36 34 37 -0.184381 0.370192 -0.910473 
0.180393 0.397983 1.0606 40 38 39 -0.17597 0.379122 -0.908461 
0.19371 0.396737 1.05675 43 40 41 -0.17597 0.379122 -0.908461 
0.204633 0.408149 1.05964 41 41 43 -0.195554 0.383865 -0.902445 
0.207137 0.399034 1.05511 41 41 44 -0.179476 0.38336 -0.905993 
0.216165 0.405526 1.05586 42 40 43 -0.195914 0.39328 -0.898303 
0.224941 0.407222 1.0552 44 45 47 -0.176821 0.395332 -0.901358 
0.233473 0.40525 1.05285 44 43 43 -0.164122 0.389611 -0.906238 
0.233448 0.415006 1.0571 44 44 45 -0.182727 0.384159 -0.905004 
0.242354 0.416495 1.05612 46 42 44 -0.171507 0.367109 -0.91423 
0.249122 0.409262 1.05172 31 29 33 -0.107421 0.354896 -0.928714 
0.2527 0.419729 1.0551 27 29 35 -0.154938 0.353147 -0.922649 
0.262872 0.422858 1.05447 78 89 104 -0.142191 0.198556 -0.96972 
0.272933 0.421375 1.05035 129 148 167 -0.343956 -0.284397 -0.894881 
0.287391 0.419891 1.04092 185 204 219 -0.447371 -0.510102 -0.734613 
0.304614 0.420421 1.03368 178 199 222 -0.314847 -0.492047 -0.811641 
0.314672 0.420597 1.02923 164 182 208 -0.277976 -0.476752 -0.833928 
0.324033 0.420044 1.02722 164 183 201 -0.246323 -0.472756 -0.846065 
0.353655 0.426289 1.01686 85 93 120 -0.257572 -0.274648 -0.926404 
0.362706 0.426343 1.0142 77 86 108 -0.244549 -0.298893 -0.92242 
0.386133 0.431013 1.00726 50 52 61 -0.275003 -0.119738 -0.953958 
0.397868 0.432297 1.00374 44 47 53 -0.288584 -0.0841165 -0.953752 
0.40686 0.434608 1.00131 43 45 51 -0.264333 -0.00844901 -0.964394 
0.416561 0.43557 0.999016 41 41 48 -0.260066 0.0615615 -0.963626 
0.426276 0.43648 0.997194 42 42 48 -0.252952 0.0585653 -0.965705 
0.459618 0.444019 0.98825 43 45 49 -0.265549 0.130793 -0.955184 
0.469998 0.445706 0.987252 40 43 47 -0.226411 0.153122 -0.961921 
0.101759 0.204549 1.50184 0 0 0 0.961599 -0.0722149 -0.264788 
0.100476 0.220097 1.4914 0 0 0 0.968558 -0.0530548 -0.243065 
0.0979725 0.234 1.48002 0 0 0 0.953755 -0.105973 -0.281286 
0.0972435 0.240419 1.47245 0 0 0 0.956679 -0.119094 -0.265672 
0.131788 0.0985075 1.84514 4 4 4 -0.197087 0.330368 -0.923046 
0.129498 0.109073 1.85068 5 5 5 -0.198845 0.353344 -0.914116 
0.0958442 0.061975 1.50897 0 0 0 0.889823 -0.294614 -0.348452 
0.0955262 0.0702135 1.50345 0 0 0 0.910581 -0.245436 -0.332572 
0.0932204 0.0772569 1.49448 0 0 0 0.867811 -0.297404 -0.398064 
0.0919139 0.0906332 1.48955 0 0 0 0.928303 -0.18342 -0.323436 
0.0907547 0.0953428 1.48078 0 0 0 0.95164 -0.0900729 -0.293716 
0.0899001 0.103329 1.47472 0 0 0 0.958576 -0.0568325 -0.279111 
0.123128 -0.136828 1.53556 135 138 143 0.118316 -0.822366 -0.556521 
0.123592 -0.12844 1.51882 128 129 139 0.181992 -0.862612 -0.471995 
0.124091 -0.119606 1.5011 113 111 114 0.249336 -0.865876 -0.433694 
0.122735 -0.111032 1.47962 92 85 90 0.291929 -0.86356 -0.411146 
0.122578 -0.103582 1.46493 57 49 55 0.365118 -0.829813 -0.422019 
0.12151 -0.0999903 1.45476 51 46 51 0.397019 -0.814766 -0.42253 
0.121002 -0.0899345 1.43618 23 22 25 0.483228 -0.758422 -0.437362 
0.118486 -0.0869937 1.42701 30 28 32 0.455084 -0.785466 -0.419455 
0.120325 -0.0742517 1.40985 7 7 7 0.537774 -0.735123 -0.412787 
0.098391 0.0554754 1.5229 0 0 0 0.858854 -0.354374 -0.369849 
0.0976441 0.0706587 1.51237 0 0 0 0.938202 -0.15203 -0.310908 
0.0962862 0.0828156 1.50602 0 0 0 0.949033 -0.14363 -0.280549 
0.092805 0.104363 1.48826 0 0 0 0.964057 -0.038266 -0.262925 
0.0922108 0.118566 1.48096 0 0 0 0.959629 -0.0619523 -0.27436 
0.0920081 0.129602 1.47818 0 0 0 0.964975 -0.0928105 -0.245376 
0.090027 0.134351 1.46705 0 0 0 0.957342 -0.119177 -0.263236 
0.0897039 0.145643 1.46306 0 0 0 0.958757 -0.0620596 -0.277368 
0.0886875 0.154024 1.45717 0 0 0 0.965231 -0.0560457 -0.255319 
0.0878301 0.162354 1.45256 0 0 0 0.963581 -0.079981 -0.255177 
0.0873714 0.171281 1.44844 0 0 0 0.951748 -0.028917 -0.305515 
0.0867438 0.184136 1.44161 0 0 0 0.962382 -0.0828541 -0.25876 
0.0854098 0.196296 1.4367 0 0 0 0.956288 -0.105674 -0.272666 
0.0830386 0.216321 1.42088 0 0 0 0.961873 -0.0749676 -0.263022 
0.0821024 0.227488 1.4166 0 0 0 0.968855 -0.0556813 -0.241286 
0.126018 -0.115706 1.49179 77 71 79 0.323209 -0.83847 -0.438753 
0.124339 -0.0936114 1.44712 23 22 25 0.507563 -0.747382 -0.428718 
0.119757 -0.0677324 1.39816 5 6 5 0.541519 -0.717057 -0.438846 
0.102752 0.0410051 1.54732 0 0 0 0.701656 -0.454993 -0.548325 
0.101417 0.0530917 1.53555 0 0 0 0.88114 -0.318903 -0.349131 
0.100272 0.0649579 1.527 0 0 0 0.925895 -0.178435 -0.332985 
0.098958 0.0791307 1.51623 0 0 0 0.946219 -0.115782 -0.302098 
0.0974912 0.091215 1.51068 0 0 0 0.946436 -0.0798515 -0.312861 
0.0967169 0.0992437 1.50198 0 0 0 0.947083 -0.0880091 -0.308689 
0.0959831 0.109969 1.49804 0 0 0 0.934275 -0.0537241 -0.352482 
0.09507 0.12036 1.49213 0 0 0 0.947069 -0.0421772 -0.318246 
0.094307 0.132845 1.48605 0 0 0 0.951375 -0.0871986 -0.295434 
0.0928062 0.142736 1.47753 0 0 0 0.967263 -0.0817583 -0.240244 
0.0916994 0.153781 1.46999 0 0 0 0.968274 -0.055648 -0.243614 
0.0913709 0.161468 1.46593 0 0 0 0.96519 -0.0331976 -0.259433 
0.0909475 0.171293 1.46309 0 0 0 0.968952 -0.0156477 -0.246752 
0.0901964 0.181757 1.46098 0 0 0 0.96606 -0.0255829 -0.257048 
0.0893028 0.19132 1.45367 0 0 0 0.966707 -0.0794036 -0.243252 
0.0875888 0.196195 1.44603 0 0 0 0.949173 -0.0932106 -0.300637 
0.0871132 0.205007 1.43855 0 0 0 0.953234 -0.128244 -0.273675 
0.0862757 0.215629 1.43221 0 0 0 0.960768 -0.0514921 -0.272532 
0.0847658 0.222738 1.42723 0 0 0 0.961171 -0.0159175 -0.275495 
0.0837338 0.237281 1.41901 0 0 0 0.966141 -0.0534672 -0.252415 
0.082684 0.24714 1.41242 0 0 0 0.962062 -0.0747848 -0.262381 
0.0816787 0.255497 1.40443 0 0 0 0.96346 -0.0563793 -0.261851 
0.0807027 0.266611 1.39928 0 0 0 0.963581 -0.079981 -0.255177 
0.079017 0.279256 1.39101 0 0 0 0.958032 -0.0542758 -0.281477 
0.0782023 0.290457 1.38781 0 0 0 0.959783 -0.05409 -0.275482 
0.13166 -0.137644 1.54407 113 113 122 0.284699 -0.755486 -0.590074 
0.131697 -0.132951 1.53405 101 102 109 0.295312 -0.803817 -0.516401 
0.131494 -0.124865 1.51858 69 68 71 0.370747 -0.800879 -0.470255 
0.128377 -0.104064 1.47183 28 26 29 0.463708 -0.779354 -0.421405 
0.126775 -0.0799122 1.42897 1 1 1 0.551081 -0.71988 -0.421999 
0.10478 0.0507939 1.55016 0 0 0 0.793698 -0.310163 -0.5233 
0.103692 0.060894 1.5407 0 0 0 0.918844 -0.167961 -0.357093 
0.102173 0.0730765 1.53193 0 0 0 0.943327 -0.113734 -0.311766 
0.101268 0.0809235 1.52603 0 0 0 0.957915 -0.096955 -0.270181 
0.100705 0.0892425 1.52206 0 0 0 0.948411 -0.104206 -0.299429 
0.100129 0.101138 1.51842 0 0 0 0.945322 -0.0991596 -0.3107 
0.0993419 0.108416 1.51163 0 0 0 0.955877 -0.0571241 -0.288159 
0.0986012 0.118671 1.50622 0 0 0 0.941737 -0.0584527 -0.331232 
0.0974222 0.131576 1.49995 0 0 0 0.956064 -0.0414588 -0.290211 
0.0965546 0.139043 1.49464 0 0 0 0.960641 -0.0539968 -0.272495 
0.0954706 0.148998 1.48762 0 0 0 0.960732 -0.0462251 -0.273602 
0.0946328 0.156838 1.48359 0 0 0 0.959195 -0.0832412 -0.270214 
0.094173 0.168451 1.4803 0 0 0 0.966913 -0.040544 -0.251864 
0.0932202 0.175329 1.47256 0 0 0 0.964127 -0.058773 -0.258851 
0.091869 0.18872 1.46702 0 0 0 0.95359 -0.0654551 -0.293906 
0.0904245 0.202498 1.45316 0 0 0 0.962595 -0.0879722 -0.256267 
0.0897056 0.21111 1.44875 0 0 0 0.962826 -0.0563422 -0.264182 
0.0890122 0.218428 1.44342 0 0 0 0.960194 -0.0360228 -0.277003 
0.0873064 0.224183 1.436 0 0 0 0.963042 -0.0308272 -0.26758 
0.0867107 0.236166 1.43326 0 0 0 0.962769 -0.0801247 -0.25818 
0.0851538 0.244823 1.42486 0 0 0 0.963599 -0.0692784 -0.258219 
0.084806 0.255417 1.42047 0 0 0 0.969711 -0.0403537 -0.240899 
0.0836582 0.266018 1.41391 0 0 0 0.967531 -0.0557476 -0.246528 
0.082862 0.272523 1.40767 0 0 0 0.966491 -0.043202 -0.25304 
0.0817692 0.282188 1.39943 0 0 0 0.961482 -0.0669626 -0.266587 
0.0810889 0.292526 1.39663 0 0 0 0.960182 -0.0752334 -0.269055 
0.0802787 0.31454 1.38754 0 0 0 0.922441 -0.178855 -0.342219 
0.133601 -0.120633 1.51095 39 33 39 0.427375 -0.778374 -0.459875 
0.133203 -0.116394 1.50113 29 26 30 0.447475 -0.776166 -0.444221 
0.131988 -0.108222 1.48401 23 21 24 0.490645 -0.753197 -0.438134 
0.128932 -0.0854971 1.44306 6 5 7 0.544903 -0.720464 -0.428966 
0.109595 0.0388816 1.56515 3 3 3 0.527732 -0.314088 -0.789207 
0.107713 0.0471354 1.56001 0 0 0 0.6799 -0.202886 -0.70468 
0.106308 0.0623009 1.55131 0 0 0 0.927409 -0.0961256 -0.361486 
0.105328 0.0692937 1.54275 0 0 0 0.935944 -0.11784 -0.331847 
0.104701 0.0824538 1.53686 0 0 0 0.945534 -0.052888 -0.321198 
0.104152 0.09101 1.53534 0 0 0 0.948461 -0.0316576 -0.315309 
0.103465 0.102577 1.52986 0 0 0 0.96097 -0.0566758 -0.270784 
0.102284 0.110296 1.522 0 0 0 0.960757 -0.0723423 -0.267793 
0.101158 0.117201 1.51551 0 0 0 0.946661 -0.0394973 -0.319801 
0.100967 0.129227 1.51502 0 0 0 0.952786 -0.070911 -0.295248 
0.0997718 0.136635 1.50888 0 0 0 0.963764 -0.0232675 -0.265739 
0.0989546 0.143615 1.50374 0 0 0 0.962552 -0.0207921 -0.270297 
0.0982067 0.154655 1.49718 0 0 0 0.956375 -0.0388567 -0.289545 
0.0968362 0.166189 1.49008 0 0 0 0.962133 -0.0539397 -0.26719 
0.0961344 0.17785 1.48702 0 0 0 0.964557 -0.0796423 -0.251569 
0.0955854 0.183984 1.47911 0 0 0 0.964052 -0.0718313 -0.25582 
0.0938286 0.19878 1.46926 0 0 0 0.960797 -0.0645595 -0.269631 
0.0931759 0.209585 1.46374 0 0 0 0.967573 -0.0254944 -0.251302 
0.092663 0.218407 1.45918 0 0 0 0.970466 -0.0253165 -0.239904 
0.0906684 0.224981 1.45351 0 0 0 0.966109 -0.0482436 -0.253588 
0.090083 0.231918 1.44595 0 0 0 0.963626 -0.0615615 -0.260066 
0.0889015 0.242247 1.44084 0 0 0 0.965681 -0.0638777 -0.251753 
0.0880717 0.252071 1.43451 0 0 0 0.962807 -0.0854412 -0.256324 
0.0879298 0.26318 1.43172 0 0 0 0.961342 -0.0962625 -0.257984 
0.0872698 0.275109 1.42633 0 0 0 0.965842 -0.0560812 -0.252988 
0.0851268 0.283409 1.41446 0 0 0 0.962569 -0.0826513 -0.258126 
0.0846812 0.294298 1.41216 0 0 0 0.950626 -0.106797 -0.291385 
0.0842705 0.308197 1.40501 3 3 3 0.909196 -0.245847 -0.336039 
0.0838762 0.314613 1.39869 3 3 3 0.867525 -0.319776 -0.380977 
0.13409 -0.0974962 1.47048 50 53 56 0.478694 -0.748474 -0.458954 
0.132307 -0.0940447 1.45984 22 25 27 0.519859 -0.737705 -0.430741 
0.110618 0.0525926 1.56778 3 3 3 0.801869 -0.0581887 -0.59466 
0.109484 0.0643739 1.56078 0 0 0 0.913284 -0.0356855 -0.405757 
0.108604 0.0760946 1.55346 0 0 0 0.944651 -0.0718614 -0.32011 
0.108074 0.0842758 1.54947 0 0 0 0.944596 -0.0799172 -0.318359 
0.105857 0.0989099 1.54163 0 0 0 0.948452 -0.0394658 -0.314453 
0.104841 0.110927 1.53274 0 0 0 0.952933 -0.044293 -0.299927 
0.104506 0.119586 1.53157 0 0 0 0.958238 -0.0439559 -0.282573 
0.104141 0.127227 1.52716 0 0 0 0.960982 -0.00852582 -0.27648 
0.103684 0.136167 1.52639 0 0 0 0.964872 -0.0510448 -0.257714 
0.102519 0.139558 1.51804 0 0 0 0.964127 -0.058773 -0.258851 
0.101659 0.150491 1.51457 0 0 0 0.954848 0.0012226 -0.297091 
0.100691 0.162081 1.5102 0 0 0 0.949363 -0.0419397 -0.311371 
0.0993911 0.168348 1.49997 0 0 0 0.954596 -0.0442528 -0.294597 
0.0987269 0.176202 1.49571 0 0 0 0.959042 -0.0516698 -0.278513 
0.0981077 0.185531 1.49198 0 0 0 0.957472 -0.0889173 -0.274484 
0.0978018 0.194152 1.48836 0 0 0 0.964401 -0.0332552 -0.262347 
0.0967983 0.202242 1.48089 0 0 0 0.961723 -0.112611 -0.249815 
0.0942445 0.218427 1.46909 0 0 0 0.963251 -0.0383322 -0.265852 
0.0935351 0.230412 1.46171 0 0 0 0.967806 -0.0660151 -0.242886 
0.092649 0.238089 1.45431 0 0 0 0.964648 -0.0307213 -0.261745 
0.0911335 0.24867 1.44783 0 0 0 0.966311 -0.0586021 -0.250617 
0.0912013 0.264152 1.44774 0 0 0 0.958745 -0.0335747 -0.282277 
0.089782 0.274389 1.43913 0 0 0 0.962642 -0.0564784 -0.264821 
0.0885048 0.283717 1.42891 0 0 0 0.95679 -0.0865114 -0.277611 
0.0882081 0.294061 1.42433 1 1 1 0.926248 -0.210704 -0.31252 
0.0875859 0.300707 1.41823 2 2 2 0.896224 -0.259238 -0.359971 
0.134928 -0.0872317 1.4531 3 3 4 0.509058 -0.727936 -0.459313 
0.113648 0.0611863 1.57708 6 6 6 0.778473 0.0294557 -0.626986 
0.113394 0.0691225 1.57312 2 2 2 0.848864 -0.0260556 -0.527969 
0.111838 0.0819249 1.56805 0 0 0 0.923701 -0.00640569 -0.383061 
0.110812 0.0883338 1.5598 0 0 0 0.939536 0.00125439 -0.342448 
0.105806 0.141365 1.53561 0 0 0 0.961307 -0.0233865 -0.274483 
0.104213 0.150356 1.52315 0 0 0 0.971848 -0.0252272 -0.234253 
0.103394 0.158216 1.51854 0 0 0 0.960732 -0.0462251 -0.273602 
0.101664 0.173632 1.50967 0 0 0 0.962503 -0.05898 -0.264782 
0.101094 0.184375 1.50478 0 0 0 0.961869 -0.0435516 -0.27002 
0.0986237 0.203596 1.49033 0 0 0 0.967509 -0.040569 -0.249561 
0.0983019 0.214205 1.48379 0 0 0 0.967437 -0.0950954 -0.234569 
0.097761 0.225178 1.48216 0 0 0 0.96512 -0.0256876 -0.260546 
0.0940516 0.244442 1.46023 0 0 0 0.964923 -0.0769416 -0.251006 
0.0934932 0.25611 1.45639 0 0 0 0.968738 -0.0354267 -0.245544 
0.0930183 0.27337 1.4507 0 0 0 0.948669 -0.101596 -0.29951 
0.092129 0.284025 1.44326 0 0 0 0.914593 -0.213931 -0.343152 
0.0918489 0.293915 1.43571 3 3 3 0.872258 -0.325378 -0.365096 
0.140792 -0.108127 1.49906 104 107 103 0.510774 -0.710425 -0.484154 
0.135177 -0.0568251 1.51463 50 54 57 0.375895 -0.763181 -0.525602 
0.11594 0.0753298 1.58117 5 5 5 0.807122 0.0292738 -0.589659 
0.114903 0.0841152 1.57878 2 2 2 0.851727 0.0836138 -0.517272 
0.0963636 0.267727 1.46456 0 0 0 0.94424 -0.14454 -0.295835 
0.0957468 0.278803 1.45718 0 0 0 0.876717 -0.276143 -0.393844 
0.0957426 0.292827 1.44914 5 5 5 0.784468 -0.436898 -0.440147 
0.139115 -0.0607871 1.5267 47 50 54 0.32594 -0.718366 -0.614584 
0.0994079 0.268228 1.47515 1 1 1 0.905851 -0.247316 -0.343901 
0.1126 0.244567 1.18341 46 49 52 -0.314265 -0.875995 -0.365883 
0.111552 0.250909 1.16071 37 38 42 -0.200418 -0.906929 -0.370558 
0.111489 0.254652 1.15279 42 45 49 -0.22203 -0.918203 -0.328032 
0.114481 0.236981 1.20048 44 48 51 -0.285478 -0.87758 -0.385169 
0.114963 0.24007 1.19164 48 51 55 -0.345202 -0.877452 -0.333036 
0.111944 0.277272 1.08909 49 56 61 -0.145291 -0.928481 -0.341781 
0.13544 -0.0198963 1.79709 13 12 12 -0.338271 0.27623 -0.899594 
0.109207 0.256116 1.51374 3 3 3 0.833585 -0.340655 -0.434845 
0.117312 0.230944 1.21725 46 50 55 -0.278848 -0.867021 -0.412939 
0.113977 0.28026 1.08031 62 66 69 -0.130449 -0.92962 -0.34466 
0.113706 0.284347 1.06849 60 67 74 -0.129816 -0.933308 -0.334789 
0.113458 0.288 1.05708 62 70 74 -0.131279 -0.924482 -0.357909 
0.107943 0.336519 1.0484 24 23 24 -0.21497 0.387532 -0.896441 
0.107348 0.348608 1.05349 25 24 23 -0.197953 0.374233 -0.905961 
0.106042 0.357174 1.05777 24 24 25 -0.221698 0.389072 -0.894132 
0.112678 0.251309 1.52603 3 3 3 0.800494 -0.410716 -0.436487 
0.11602 0.290884 1.04918 67 69 75 -0.141264 -0.894675 -0.423793 
0.115093 0.29604 1.04195 91 95 115 -0.172038 -0.765798 -0.619642 
0.114767 0.305043 1.0361 67 62 75 -0.218975 -0.300914 -0.928171 
0.11426 0.314129 1.03812 30 29 29 -0.21156 0.134629 -0.968048 
0.121611 0.285636 1.06121 63 67 73 -0.115513 -0.930896 -0.346538 
0.116219 0.329252 1.04388 23 23 23 -0.194962 0.376927 -0.905492 
0.115672 0.34176 1.04934 25 24 25 -0.186543 0.391886 -0.900903 
0.110126 0.375148 1.06458 28 25 29 -0.23002 0.367738 -0.901032 
0.116984 0.350249 1.05264 25 24 24 -0.170044 0.384385 -0.907377 
0.127641 0.396557 1.06969 34 30 34 -0.197132 0.369802 -0.907957 
0.136621 0.403013 1.07092 37 36 37 -0.204651 0.381725 -0.901335 
0.136144 0.412731 1.07545 35 36 37 -0.197739 0.376714 -0.904979 
0.152565 0.407522 1.07003 39 37 36 -0.172817 0.384197 -0.906933 
0.156817 0.422365 1.07571 42 38 40 -0.184863 0.371158 -0.909982 
0.163522 0.404179 1.06643 40 36 39 -0.17874 0.378929 -0.908 
0.168162 0.41398 1.06938 42 39 40 -0.181898 0.373822 -0.909489 
0.167294 0.424161 1.07399 41 39 40 -0.174978 0.371295 -0.911879 
0.17241 0.401117 1.06305 38 38 40 -0.18543 0.378047 -0.907026 
0.17736 0.411619 1.06647 42 39 41 -0.169532 0.37753 -0.910346 
0.177145 0.421046 1.07067 42 40 42 -0.166583 0.380151 -0.9098 
0.186194 0.408308 1.06369 43 42 42 -0.179544 0.389251 -0.903464 
0.184914 0.427567 1.07234 46 44 46 -0.173074 0.387629 -0.905422 
0.193124 0.41845 1.06689 42 41 42 -0.169532 0.37753 -0.910346 
0.19896 0.42602 1.06903 42 42 42 -0.172218 0.371479 -0.912329 
0.204648 0.41829 1.06446 43 42 44 -0.185711 0.3815 -0.905522 
0.209892 0.429191 1.0682 43 42 45 -0.182176 0.377262 -0.908012 
0.213397 0.414468 1.06085 42 42 42 -0.200034 0.398607 -0.895041 
0.21262 0.438905 1.07161 45 44 45 -0.166331 0.376733 -0.911266 
0.219255 0.420989 1.06284 44 43 44 -0.181898 0.373822 -0.909489 
0.218903 0.430651 1.06661 44 43 44 -0.189265 0.385753 -0.90298 
0.225395 0.436989 1.06854 46 44 47 -0.179544 0.389251 -0.903464 
0.228056 0.426674 1.06309 46 44 44 -0.182727 0.384159 -0.905004 
0.238681 0.430068 1.0627 46 44 45 -0.189053 0.388209 -0.901972 
0.240347 0.440284 1.06669 50 48 48 -0.192836 0.390023 -0.900387 
0.247274 0.435936 1.06322 44 42 44 -0.198929 0.390598 -0.898811 
0.246347 0.447505 1.06826 47 46 45 -0.195259 0.380394 -0.903977 
0.252333 0.428356 1.05782 28 27 29 -0.217013 0.374312 -0.901552 
0.255679 0.444195 1.06424 28 28 30 -0.270183 0.371689 -0.888171 
0.258498 0.434692 1.06002 41 40 45 -0.291102 0.34783 -0.89122 
0.264776 0.440659 1.05934 50 52 54 -0.497767 0.296776 -0.814956 
0.266872 0.430898 1.05406 73 82 98 -0.47342 0.159761 -0.866227 
0.272103 0.43629 1.04942 62 66 82 -0.70519 0.117284 -0.699251 
0.277458 0.42726 1.0436 110 126 146 -0.610025 -0.20849 -0.764462 
0.281333 0.43769 1.03952 53 57 64 -0.626538 0.0351987 -0.778596 
0.286083 0.428359 1.03788 100 115 138 -0.482179 -0.260346 -0.836495 
0.289804 0.43774 1.03474 45 46 53 -0.46467 -0.0119829 -0.885403 
0.295113 0.422595 1.03591 175 193 214 -0.362376 -0.467737 -0.806167 
0.295804 0.43089 1.03209 71 80 96 -0.373041 -0.207568 -0.904299 
0.301464 0.438119 1.03017 42 41 47 -0.360674 -0.00126552 -0.932691 
0.304909 0.428373 1.03022 89 98 124 -0.297397 -0.271284 -0.915402 
0.310227 0.435004 1.02737 52 52 63 -0.28125 -0.0920218 -0.955212 
0.317081 0.428631 1.02663 84 93 116 -0.271495 -0.254437 -0.928199 
0.319549 0.439626 1.02486 45 46 51 -0.27002 0.0435516 -0.961869 
0.326038 0.429143 1.02365 73 84 102 -0.258791 -0.239207 -0.935846 
0.328923 0.437466 1.02216 43 41 48 -0.25186 0.0132558 -0.967673 
0.334977 0.428343 1.02173 74 86 106 -0.253388 -0.242189 -0.936557 
0.33824 0.439199 1.02067 40 41 47 -0.265245 0.0357772 -0.963517 
0.344448 0.4287 1.01864 73 80 98 -0.259001 -0.22022 -0.940437 
0.34735 0.43964 1.01848 41 42 47 -0.241996 0.045451 -0.969212 
0.355943 0.437128 1.01564 42 43 49 -0.256964 0.0132704 -0.96633 
0.365129 0.434573 1.0127 41 44 52 -0.271957 -0.0134149 -0.962216 
0.365408 0.443235 1.01436 40 43 46 -0.238288 0.148765 -0.959733 
0.374609 0.432826 1.01076 46 48 54 -0.247838 -0.0354054 -0.968154 
0.38068 0.443002 1.01044 39 41 47 -0.248541 0.158163 -0.955621 
0.38943 0.439598 1.00701 39 40 45 -0.262578 0.118879 -0.95756 
0.410871 0.442603 1.00251 46 46 50 -0.262136 0.14504 -0.954069 
0.427128 0.449157 0.999736 45 47 52 -0.255901 0.21717 -0.941993 
0.439246 0.443022 0.994463 41 41 46 -0.264957 0.16005 -0.950885 
0.872058 0.258226 1.19588 0 0 0 -0.947069 -0.318246 0.0421772 
0.111573 -0.128026 1.51691 132 132 136 0.0225805 -0.896577 -0.442311 
0.109989 -0.118908 1.49543 137 137 137 0.014327 -0.913018 -0.407667 
0.0876064 0.0744154 1.47577 0 0 0 0.835365 -0.398018 -0.379139 
0.0849045 0.0983638 1.45741 0 0 0 0.931634 -0.161963 -0.32531 
0.114736 -0.122928 1.50392 131 135 137 0.0641386 -0.899305 -0.432594 
0.115812 -0.114436 1.4879 127 128 133 0.1628 -0.891798 -0.422128 
0.113547 -0.0958594 1.44093 109 102 107 0.261585 -0.872455 -0.412791 
0.112536 -0.0845239 1.41573 52 46 50 0.360951 -0.833814 -0.417695 
0.111398 -0.0733851 1.39686 35 35 38 0.403246 -0.804885 -0.435377 
0.0901946 0.0675801 1.49168 0 0 0 0.744307 -0.486852 -0.457146 
0.0885136 0.0908153 1.46634 0 0 0 0.951775 -0.111896 -0.285664 
0.0877592 0.100525 1.46607 0 0 0 0.948995 -0.126444 -0.288825 
0.0865778 0.110569 1.45871 0 0 0 0.957807 -0.049086 -0.283189 
0.0851984 0.125538 1.45094 0 0 0 0.960257 -0.1021 -0.259773 
0.0842464 0.132532 1.44384 0 0 0 0.964493 -0.0743857 -0.253416 
0.0836143 0.143462 1.43949 0 0 0 0.956125 -0.097299 -0.276329 
0.0832248 0.153256 1.43401 0 0 0 0.966993 -0.0714897 -0.24457 
0.0823799 0.163417 1.42938 0 0 0 0.963064 -0.0721349 -0.259432 
0.0820608 0.17491 1.42763 0 0 0 0.967682 -0.0608683 -0.244716 
0.0800326 0.175839 1.41629 0 0 0 0.966431 -0.0508648 -0.251843 
0.0805365 0.18448 1.41844 0 0 0 0.965984 -0.040712 -0.255375 
0.0790441 0.190483 1.40974 0 0 0 0.967252 -0.0355517 -0.251314 
0.0780065 0.199434 1.40553 0 0 0 0.965524 -0.0663719 -0.251712 
0.0771609 0.214002 1.39572 0 0 0 0.965657 -0.0509549 -0.254774 
0.0768546 0.221965 1.39189 0 0 0 0.963293 -0.0642196 -0.260656 
0.0707718 0.2817 1.35876 0 0 0 0.965943 -0.0483592 -0.254196 
0.115905 -0.143754 1.55002 143 144 149 -0.139901 -0.729592 -0.66942 
0.117588 -0.131418 1.52569 135 140 145 0.0228453 -0.882903 -0.469 
0.114179 -0.0654041 1.38441 10 10 10 0.521911 -0.742529 -0.419833 
0.113157 -0.0554839 1.3683 12 15 16 0.533447 -0.709601 -0.460327 
0.0894604 0.112879 1.47086 0 0 0 0.956125 -0.097299 -0.276329 
0.0881202 0.123011 1.46213 0 0 0 0.961227 -0.0749173 -0.265385 
0.0872479 0.131918 1.45834 0 0 0 0.965937 -0.0954484 -0.24053 
0.0871688 0.142045 1.45276 0 0 0 0.963764 -0.0667706 -0.258264 
0.086096 0.150846 1.44553 0 0 0 0.964132 -0.07708 -0.253985 
0.0853954 0.166447 1.4408 0 0 0 0.963599 -0.0333126 -0.265267 
0.083413 0.183388 1.43049 0 0 0 0.965887 -0.0355918 -0.256506 
0.082512 0.193756 1.42512 0 0 0 0.963949 -0.053622 -0.260628 
0.081117 0.199617 1.41884 0 0 0 0.948322 -0.0632215 -0.310947 
0.0812079 0.209837 1.41418 0 0 0 0.960424 -0.0488351 -0.274228 
0.0796648 0.217981 1.40456 0 0 0 0.965536 -0.0587066 -0.253562 
0.0791663 0.229772 1.40133 0 0 0 0.962931 -0.0485826 -0.265336 
0.0783938 0.238526 1.39566 0 0 0 0.968682 -0.0505936 -0.243096 
0.0778467 0.250035 1.39205 0 0 0 0.956359 -0.0519347 -0.287541 
0.0766453 0.26021 1.38772 0 0 0 0.957943 -0.0311425 -0.285265 
0.0747746 0.275397 1.37331 0 0 0 0.961832 -0.0283254 -0.27217 
0.0738391 0.285462 1.36755 0 0 0 0.961576 -0.0937184 -0.258047 
0.0735625 0.296736 1.36416 0 0 0 0.95646 -0.0783142 -0.281161 
0.0846303 0.206225 1.43034 0 0 0 0.955847 -0.0415586 -0.29091 
0.078001 0.270394 1.39008 0 0 0 0.959134 -0.0361702 -0.280631 
0.0765368 0.281976 1.37958 0 0 0 0.968889 -0.0428712 -0.243753 
0.0756638 0.292589 1.37376 0 0 0 0.96314 -0.059019 -0.262446 
0.0750938 0.303903 1.37023 0 0 0 0.966895 -0.0662942 -0.246414 
0.0745222 0.309582 1.36298 0 0 0 0.968545 -0.0764311 -0.236811 
0.0738296 0.320131 1.36016 0 0 0 0.962382 -0.0828541 -0.25876 
0.0731067 0.328971 1.35288 2 2 2 0.935992 -0.138008 -0.32384 
0.072171 0.33835 1.34761 2 2 2 0.905014 -0.238316 -0.352356 
0.0718459 0.34678 1.3415 1 1 1 0.873262 -0.309375 -0.376432 
0.0776181 0.303467 1.38226 0 0 0 0.962134 -0.0800719 -0.260551 
0.0777521 0.318163 1.37764 0 0 0 0.937657 -0.206979 -0.279213 
0.0768319 0.326147 1.36886 3 3 3 0.90534 -0.259717 -0.336017 
0.126057 -0.144231 1.54892 129 132 133 0.0125508 -0.701451 -0.712607 
0.0778492 0.33505 1.36789 3 3 3 0.849802 -0.366428 -0.378902 
0.140053 -0.143992 1.56351 73 69 78 0.398368 -0.619867 -0.676068 
0.0908195 0.30198 1.42709 3 3 3 0.827412 -0.393931 -0.400259 
0.104375 0.259999 1.14439 51 54 58 -0.420814 -0.820984 -0.385878 
0.104114 0.262866 1.13612 44 45 49 -0.347089 -0.870015 -0.350147 
0.103469 0.265183 1.12497 35 37 38 -0.207659 -0.901791 -0.379014 
0.103023 0.268464 1.11687 47 51 59 -0.250878 -0.902281 -0.350642 
0.103396 0.272912 1.10424 44 47 50 -0.201336 -0.918149 -0.341272 
0.103247 0.275732 1.09554 39 41 44 -0.158224 -0.922738 -0.351453 
0.105635 0.279891 1.08371 49 57 60 -0.120706 -0.934457 -0.334994 
0.105592 0.284273 1.07253 56 61 65 -0.144209 -0.932549 -0.330993 
0.105568 0.286819 1.06413 51 55 59 -0.106133 -0.936392 -0.334522 
0.0992025 0.278832 1.46671 3 3 3 0.845795 -0.338007 -0.412773 
0.0989743 0.288905 1.45927 5 5 5 0.769802 -0.436385 -0.465804 
0.109368 0.248394 1.17389 43 44 47 -0.270764 -0.855125 -0.442095 
0.107731 0.293839 1.04651 70 68 72 -0.17064 -0.847264 -0.503017 
0.107152 0.300964 1.03861 157 171 190 -0.218622 -0.527445 -0.820979 
0.104437 0.323596 1.04331 27 26 26 -0.205612 0.352272 -0.913032 
0.103968 0.272797 1.48427 4 4 4 0.780512 -0.465711 -0.41703 
0.103524 0.280562 1.47918 4 4 4 0.742336 -0.508607 -0.436184 
0.133364 0.203108 1.61544 3 3 3 0.72256 -0.466757 -0.509945 
0.136637 0.192318 1.63222 4 4 4 0.642304 -0.304249 -0.703476 
0.167944 0.434084 1.07924 46 40 44 -0.175778 0.381568 -0.907474 
0.264774 0.450906 1.0638 42 42 45 -0.529509 0.339594 -0.777365 
0.270375 0.447386 1.05564 46 48 52 -0.710725 0.251682 -0.656906 
0.0957617 -0.118576 1.49426 141 142 141 -0.0892383 -0.907485 -0.410496 
0.0740126 0.0925188 1.41311 0 0 0 0.748514 -0.462269 -0.47543 
0.0991311 -0.0851218 1.41147 130 129 133 0.103551 -0.909864 -0.401776 
0.100399 -0.0728457 1.38413 106 102 109 0.22203 -0.877691 -0.424689 
0.0991912 -0.0598457 1.35386 57 49 57 0.359104 -0.827363 -0.431874 
0.077424 0.0889529 1.42862 0 0 0 0.778415 -0.48265 -0.401396 
0.0771363 0.0973744 1.4221 0 0 0 0.841652 -0.312702 -0.440272 
0.0752695 0.101904 1.41367 0 0 0 0.826286 -0.385389 -0.410764 
0.0744649 0.111396 1.40935 0 0 0 0.904133 -0.244717 -0.350223 
0.0740918 0.120446 1.40349 0 0 0 0.936687 -0.126066 -0.326688 
0.0734977 0.129403 1.39836 0 0 0 0.953581 -0.0952277 -0.285683 
0.0707183 0.164177 1.38064 0 0 0 0.963002 -0.0905604 -0.253824 
0.069801 0.173927 1.37291 0 0 0 0.966344 -0.0821077 -0.243797 
0.0696563 0.182994 1.37073 0 0 0 0.960457 -0.0803569 -0.266581 
0.0687206 0.190065 1.36436 0 0 0 0.957445 -0.021002 -0.287851 
0.0673607 0.207833 1.35786 0 0 0 0.953565 -0.10072 -0.283846 
0.102724 -0.080297 1.40258 121 115 121 0.178576 -0.889978 -0.419582 
0.102748 -0.0653962 1.36881 53 49 55 0.360475 -0.832714 -0.420292 
0.102642 -0.0529005 1.3465 47 45 48 0.480579 -0.770556 -0.418674 
0.101941 -0.0491781 1.33778 33 34 38 0.544903 -0.720464 -0.428966 
0.101472 -0.0437518 1.32899 22 22 27 0.536339 -0.727771 -0.427421 
0.101076 -0.0303964 1.30984 32 31 30 0.575612 -0.685729 -0.445474 
0.0779247 0.10679 1.42116 0 0 0 0.925999 -0.229011 -0.300132 
0.0766433 0.122928 1.4131 0 0 0 0.963798 -0.0850784 -0.252695 
0.0761164 0.131298 1.4097 0 0 0 0.959028 -0.0942248 -0.267185 
0.0750416 0.14183 1.4026 0 0 0 0.957688 -0.0863595 -0.274546 
0.0742485 0.153225 1.39804 0 0 0 0.952386 -0.0979821 -0.288721 
0.0737014 0.16132 1.393 0 0 0 0.958191 -0.110511 -0.263925 
0.0732181 0.17085 1.38924 0 0 0 0.956089 -0.102763 -0.274469 
0.0728403 0.180994 1.38841 0 0 0 0.96018 -0.0437013 -0.275943 
0.0722546 0.188375 1.38139 0 0 0 0.963636 -0.1065 -0.245079 
0.0702401 0.204233 1.37105 0 0 0 0.956866 -0.0755758 -0.280527 
0.0691302 0.213016 1.36458 0 0 0 0.958397 -0.0647394 -0.277999 
0.0686837 0.224122 1.36112 0 0 0 0.963772 -0.0537512 -0.261256 
0.0677011 0.233547 1.35359 0 0 0 0.964101 -0.0641058 -0.25768 
0.0668092 0.241777 1.34636 0 0 0 0.957124 -0.0597408 -0.283451 
0.0662707 0.252569 1.34213 0 0 0 0.956919 -0.0677126 -0.282349 
0.0651186 0.26158 1.33721 0 0 0 0.956215 -0.059843 -0.286482 
0.0642151 0.272302 1.33242 0 0 0 0.955183 -0.0865998 -0.283065 
0.0636394 0.281953 1.32472 0 0 0 0.959889 -0.0886644 -0.265993 
0.0627218 0.287975 1.31822 0 0 0 0.955123 -0.0812048 -0.284861 
0.0624063 0.297571 1.3187 0 0 0 0.951875 -0.0522448 -0.302001 
0.0619792 0.307022 1.31343 0 0 0 0.948959 -0.0768019 -0.305906 
0.104633 -0.132112 1.52835 145 148 148 -0.0973254 -0.875929 -0.472522 
0.10605 -0.106897 1.46682 129 130 136 0.0328315 -0.917969 -0.395291 
0.106265 -0.103309 1.45665 131 134 135 0.0552064 -0.908886 -0.413375 
0.10504 -0.089879 1.42406 131 131 132 0.112104 -0.912058 -0.394441 
0.0968549 0.0142401 1.33421 0 0 0 0.314308 -0.850025 -0.42269 
0.0821145 0.0835017 1.44395 0 0 0 0.831165 -0.41164 -0.373788 
0.0809988 0.101671 1.4369 0 0 0 0.928052 -0.19575 -0.316862 
0.0801207 0.112886 1.43339 0 0 0 0.941032 -0.145296 -0.30553 
0.0795627 0.119558 1.42755 0 0 0 0.952296 -0.128474 -0.276815 
0.078559 0.133063 1.42063 0 0 0 0.959463 -0.0914388 -0.266589 
0.0779309 0.144365 1.41357 0 0 0 0.964182 -0.0823546 -0.252132 
0.0767711 0.155149 1.40809 0 0 0 0.964182 -0.0823546 -0.252132 
0.0766802 0.164028 1.40476 0 0 0 0.966453 -0.0637634 -0.248802 
0.0763805 0.178553 1.40085 0 0 0 0.962429 -0.0720873 -0.261791 
0.0747629 0.185789 1.396 0 0 0 0.962108 -0.0486669 -0.268292 
0.0726782 0.197077 1.3822 0 0 0 0.961569 -0.00120952 -0.274561 
0.0712363 0.217305 1.37479 0 0 0 0.956584 -0.0944934 -0.275714 
0.0696467 0.233226 1.36211 0 0 0 0.965944 -0.0795483 -0.246221 
0.0688583 0.242328 1.35632 0 0 0 0.967983 -0.0582525 -0.244165 
0.0683221 0.252638 1.35105 0 0 0 0.967372 -0.0558816 -0.247121 
0.0624265 0.315976 1.31417 0 0 0 0.961869 -0.0435516 -0.27002 
0.0595024 0.353132 1.29355 0 0 0 0.960745 -0.10991 -0.254733 
0.0992103 0.00449163 1.35472 0 0 0 0.303403 -0.841749 -0.446547 
0.0989247 0.0104937 1.34483 0 0 0 0.319569 -0.840234 -0.438044 
0.084235 0.0781939 1.45917 0 0 0 0.768686 -0.491241 -0.409639 
0.0844755 0.0877722 1.45869 0 0 0 0.883929 -0.305686 -0.353873 
0.0838687 0.104817 1.44685 0 0 0 0.945659 -0.0797859 -0.31522 
0.0811409 0.132206 1.43142 0 0 0 0.962187 -0.0907241 -0.256839 
0.0805879 0.140989 1.42418 0 0 0 0.963772 -0.0537512 -0.261256 
0.0802293 0.150418 1.42124 0 0 0 0.960424 -0.0488351 -0.274228 
0.0796936 0.161698 1.42046 0 0 0 0.966431 -0.0508648 -0.251843 
0.0739892 0.207655 1.38498 0 0 0 0.951264 -0.0496644 -0.304353 
0.0724572 0.227666 1.37352 0 0 0 0.961386 -0.0462565 -0.271288 
0.0718039 0.238701 1.36906 0 0 0 0.962959 -0.0538455 -0.264219 
0.0707993 0.251685 1.36188 0 0 0 0.96741 -0.0354676 -0.250719 
0.0697817 0.26124 1.35513 0 0 0 0.963706 -0.0257152 -0.265723 
0.0682588 0.270484 1.34708 0 0 0 0.964202 -0.0876548 -0.250261 
0.067465 0.279833 1.3409 0 0 0 0.969001 -0.0607952 -0.239459 
0.0669845 0.290943 1.33818 0 0 0 0.971072 -0.0155659 -0.238278 
0.0661346 0.301509 1.33392 0 0 0 0.969985 -0.0656567 -0.234134 
0.0653336 0.309669 1.32731 0 0 0 0.965199 -0.0849781 -0.247324 
0.0636915 0.324222 1.31744 0 0 0 0.959553 -0.0259339 -0.280333 
0.0626632 0.333184 1.31014 0 0 0 0.95833 -0.070184 -0.276908 
0.0624582 0.342813 1.30448 0 0 0 0.939428 -0.0722637 -0.335041 
0.110096 -0.0525317 1.35882 12 12 13 0.561632 -0.707424 -0.429093 
0.109935 -0.0461451 1.34951 17 17 17 0.588324 -0.681656 -0.434993 
0.104809 -0.00301427 1.37658 5 5 5 0.206461 -0.874859 -0.438172 
0.078721 0.208678 1.40369 0 0 0 0.968545 -0.0764311 -0.236811 
0.0747449 0.230644 1.38374 0 0 0 0.963798 -0.0850784 -0.252695 
0.074524 0.241875 1.38061 0 0 0 0.965726 -0.0206507 -0.258742 
0.0737479 0.256279 1.37452 0 0 0 0.959707 0.0134825 -0.28068 
0.0723716 0.265101 1.36774 0 0 0 0.964572 -0.0331764 -0.261725 
0.0683474 0.310912 1.33841 0 0 0 0.959428 -0.062103 -0.275028 
0.0678345 0.321319 1.33596 0 0 0 0.963626 -0.0615615 -0.260066 
0.0669437 0.329919 1.33133 0 0 0 0.951875 -0.0522448 -0.302001 
0.06644 0.340132 1.32591 0 0 0 0.947474 -0.0686951 -0.312368 
0.0658261 0.345494 1.31895 0 0 0 0.932422 -0.138696 -0.333695 
0.0660519 0.354552 1.31563 1 1 1 0.876369 -0.292123 -0.382938 
0.0695107 0.347629 1.33243 2 2 2 0.880537 -0.303581 -0.363996 
0.0945193 0.0859736 1.49681 0 0 0 0.945652 -0.147041 -0.290036 
